61.540618483768505,156.77914506333704,9.919736042586496
124.29391454042577,-34.28579215702461,5.4595572477574175
239.48955355374034,-14.677949637553658,0.35808984158206214
90.73651546214707,66.27409285236023,1.1969570672888485
-51.12204271178846,44.86374191941911,8.46159318029898
200.78157351783855,37.44690648169349,3.970544188570424
-89.88138024825719,-79.87586784350077,4.037914377280001
-10.436909675340376,161.8612095377857,7.801666917547379
-72.04159106542555,-42.315041642988874,0.9968790934528904
184.73432258359216,-76.68154449997098,2.3902375018332
-76.82820387898126,-40.6266024734603,7.3692713184388206
13.65382036269609,-191.72805202622075,5.711211583703904
-67.12373577404831,-58.221166049021825,3.0613601336854224
-67.95823412209137,78.03876630569694,6.662125636534036
65.72618701111716,-4.97556479102216,9.30034373951892
93.27369175701642,-117.04697637972686,6.607348949806032
-116.73717106517026,119.96142666232758,6.6101089733124665
-44.11545901454556,-254.39708195137274,0.4601039675351659
-23.596877234279255,-108.00094349421965,3.766131973196225
46.996956228356076,13.456746259348625,6.640761860316243
112.77510830996751,146.61883075350087,4.040483143536547
-48.39784823189416,-69.53800413404238,5.803818013375272
-92.46633912301515,65.74169683046028,5.2642362932426785
123.47386098649744,-157.32272311720683,7.865626249169061
62.164318538448185,78.62779966405276,9.739819371910471
10.0357626236454,-142.51858365602087,6.209897784847137
-53.314472062072326,55.8007946982087,0.13787388984527693
-95.42721496951191,-20.67826934567254,8.663679812999117
75.5127888877938,-62.270338382046354,2.0920149499602836
15.351865519109364,40.53611357665441,2.158139195273485
-131.05441898501465,-87.69579268455684,9.001918571434489
-72.43489279215471,-23.133019785390008,0.49215182582815764
-29.28501965484437,-113.85757279529756,2.708900052827733
-18.47806832125007,-115.1408119757592,2.085072784617943
-99.61110398470987,-81.7844165015804,8.672419249442827
67.81644006143846,-41.90974590140758,9.355000366535059
-63.63677714343476,-29.47297862992867,9.186528689058456
-30.17221205925026,-129.88861076677568,8.46784024969786
-202.858737335882,-35.01993119601016,4.548503143293975
-99.42687765941716,-24.197161884112198,7.300625652569128
161.13680134516056,112.04794063359115,9.654734707714166
-44.64978130284414,-88.13209854303422,3.1260490033341
207.68824785619623,-86.700102509346,1.3368090238558383
55.73074610672701,43.42937094207534,4.3309492268041065
15.720820478515735,-115.02917458889294,0.848781951483264
70.65395456487843,-0.0535549778818576,2.0758763115783374
38.33798536676414,-107.0156584892499,2.9721036136275547
-87.76154703960289,-17.709319789402848,4.782523523033064
-147.12052500362233,36.00615770441938,0.3691235927037917
-108.18967855023274,62.59865944657902,1.1526195546453732
-19.998323678946004,73.32680811978545,5.867675970447127
-69.10689890784847,10.210329557904942,9.342428063212708
53.88257314248559,-47.99698979261346,8.93164698844735
-202.85831118933598,-9.67053443838706,0.3529720979798645
100.91862064128667,-17.995234639051745,2.2346688093401976
-85.2221078613339,-169.52912308850787,6.0196694858563085
-111.76947612816063,66.67512884792342,2.468903001425814
-73.96740673978177,-85.45874435028531,1.49739401612482
143.5576915501978,231.39404965652042,0.8925167050632132
51.37813197292944,-184.7379243015398,1.6123286369645962
47.07009922638379,216.82843569971314,8.45358910789305
-42.90487781192558,-20.094271665644335,3.6239048202854454
6.0538439825067,83.06957836179146,8.867626481141732
-38.648963573214544,92.75709877370491,4.338305275340072
-216.79246918646652,-53.08607650320057,2.5105540101968984
48.6818028033771,-156.90979223761613,4.559672947404355
174.85168926925846,60.294048251998774,8.58415754826978
226.57307560140524,-117.95328375633383,3.1948738177776637
-78.28766621514819,-29.481745392527888,3.454798996245172
-81.6229971746295,15.704836961889932,5.762335504046554
29.784149805555028,-17.38983095684477,6.710542873016021
142.75699849342493,25.568901036966928,8.560723710704739
-39.54576176020528,41.313797516360864,4.308476239656417
-30.368256636735968,160.83842185452528,0.6562289025406121
-12.019553898525755,-0.26008931543346253,6.164704915932323
-38.43794161123005,233.25553026666736,5.943193945259785
16.385092534495566,-4.451354257216471,1.636756506680298
230.32329874458551,-151.3577193443328,5.603760438521672
89.65255501881006,-130.05368061308326,6.130972679453192
-71.29054704734479,-70.82525917731866,3.2253045512592737
73.71427790949342,-184.88858370936586,1.2583558380105675
-49.74832166688486,27.534389121085233,0.6084360356685137
32.23832645546933,14.543476387222462,5.700229860782136
-118.25592741667366,65.734032866651,5.336096153952442
-85.2629607210115,-6.994378875784787,2.8056311162589753
104.37881172157807,-182.45387523199025,1.314783761433076
76.06100951606429,-92.31300178616591,6.651268280112394
42.80191386410598,-220.43360639641475,8.948475604747072
-22.632897644818783,88.33803829963209,2.0138209930240825
-109.19222612723674,11.811930730716778,2.2547206943537788
133.8029017036415,101.13963691924152,8.02841198713163
13.789760411338692,0.9765317653179589,5.319293122997395
45.50456642393618,-67.37922317779672,9.668381293418626
-16.16591628446268,50.2261117300843,5.936877520088492
10.610583315349018,149.2217161597089,1.246346356702559
172.7961744434944,-26.501114046435987,5.707476996521979
-7.424116453533049,-10.340125536689959,8.583196678629466
26.29999833785147,-36.33063285315831,1.3714107651354646
18.518321847584023,34.228138842723325,6.985076730343321
49.49225643163239,142.34027747940573,8.354761600071358
-123.92477015773223,-114.21116869095304,5.862930372698081
231.37478019991042,11.17049689807119,0.9906225365125754
143.42099450198393,15.704997500396503,4.219021979600135
-2.766593697720053,-159.147288305545,1.6381774761997892
-52.81476881437692,-68.8363678342108,9.47082593449571
-2.161517371544964,-16.710888073538495,1.0007464077615824
0.907940673680927,-179.55872036823988,1.825992287140873
28.39386182985327,143.8766734076349,6.246435939331069
60.20100194629543,43.13433607461575,9.911334329685204
4.4780096768657796,-113.14212181565726,9.600264934199952
46.833364230689114,89.01778955514304,1.9078715020116688
-144.66536423618166,85.06893918445265,6.771284935908374
170.22860252116044,-0.8232966761918549,2.2408867348283703
34.34287426069796,-41.496865081154425,7.5781738314103775
-84.35247976012037,-44.76977648890577,6.020352994550916
-103.87003982062619,46.961053217142634,1.8313967142709386
54.75073436522223,-124.5738322377492,1.8373222416430968
-7.7840381943552455,51.32392167645219,9.20101874983867
110.3833279053073,-124.92904103836186,6.014845632285786
-92.75882737708525,102.81945070723975,5.424577387943131
-82.94197817621406,-62.19185542284704,6.05786776544738
160.85993989593433,-162.49254608959265,8.17502990760959
-43.32865493959395,-25.057575356582912,7.6585140029594285
73.42968143837048,-101.06134033233857,8.138963676245844
-4.963918022619809,-32.17312777276107,2.7015602347424816
86.21236229912425,175.97622857512792,0.7510326048097149
92.79686243105938,-89.20011232264838,6.546875324319972
-25.854670099452598,6.316104515438646,8.36395813414671
-93.23124634012296,146.4306287240564,5.214453824567785
63.33070007633197,-80.1663573908182,9.791939817549878
-101.02827198147928,-4.836175940846316,3.277689282890104
23.185339328890905,-71.8345152963426,6.824724131142047
142.6410034412185,-104.19633692976487,9.070885323032122
-73.77174048481095,140.50834661861762,2.671400639320364
213.91385702692008,53.032308398520755,4.90052155614881
-108.40257410713359,46.29947092616752,6.35329957509671
161.36025320562447,87.54623160232036,9.316278746152333
-46.47177406266055,118.43398571522657,6.329667367158533
2.322978682507408,105.55074139155832,1.6852331433500733
134.31344223507028,-82.42326577198313,1.484299782417734
-7.037104681651978,-101.54511287488495,2.1206428206265002
-152.55678007531014,-32.52080315711318,2.698956487116071
-153.96827197013906,9.289993157099632,9.752277127935466
-34.681425498843254,238.4265837614915,2.9848605983999423
-4.781994904805194,130.37875942391852,9.96486558356967
-54.52884425641022,-21.45982397626865,6.865023844113112
-150.3399940634419,-117.00173895373484,8.889525664734737
-111.46592255004433,110.38597465965478,6.344801629717548
-3.2943301808438576,100.05549921336873,0.7138511162112515
7.904184770056524,-86.91148005015948,2.9123416956963855
20.40873678989728,-147.77602278887113,3.112299458889641
-227.7350417344015,-27.395536850127954,0.48653919439981985
-123.4641395661198,-81.50204243413526,2.757674608591744
-119.47501579863737,44.57647148011121,8.671347526329328
196.40388334993767,60.53917809683668,6.416726815949895
-30.48071077611944,73.54837895998895,4.836870215528638
91.4149007679225,3.05123403242292,4.621756017406505
-18.041767711310797,250.53816892942615,9.608548453621097
78.767373562869,227.40354797788788,8.572007333962391
-20.793445101175372,-25.69550806798484,7.666090862135359
-45.30379561959848,15.770118650934082,7.5311344436881615
42.85063936307999,164.05375495649318,0.21716956640682517
-82.33090781542072,-19.755420762219753,3.2025532952899836
37.88786846802252,-15.272331387138951,9.683154225785664
143.91952510359937,-37.26647012979173,9.463780797397535
-180.14744104725597,-10.474719991587321,3.134093154487869
203.61163834326615,-15.381643690587534,7.847046647123641
90.8704487306983,34.435563240640796,2.9509462135902442
131.70352398823363,-24.394651364485117,2.2902852830920972
76.29590183232924,176.669824746974,0.6844193797521858
32.25392795415852,188.54669292345062,0.11046579623406272
83.43901244603921,206.99064303949345,0.09072975071987344
-47.504702540038735,-125.71957088830526,8.058453109700757
69.89941845221641,-128.74549231723176,9.046963279661284
73.13222122065278,-35.927203957424645,3.1853354498843967
83.41058703904804,-78.63265178448128,2.027722021219611
-238.11081556036052,-157.1108623037182,9.059847773948976
-100.78172359784725,185.65832364651766,8.1230002821856
-22.258362379371658,155.19603740803817,4.564679606580838
86.02127700290478,3.010846423878668,7.839226676025117
74.76326622960498,71.98737133374809,2.586176619861049
-76.46175285545903,148.80715441251212,2.974371777566235
-150.11680539453437,4.920539717508035,4.428945655042938
-129.0584176662233,-122.21063013284012,9.512169663282267
263.9892233390074,150.38279633057445,8.8346671176809
10.916575200665598,2.1402199199265604,0.5172498174667839
-74.26578286196911,24.750157563681714,5.6300266356436515
83.93250579116663,-58.291296224878565,8.976008033904844
109.86564187885443,25.517974526629473,9.316201856654523
-116.71786040030337,-103.79790922833834,4.265418018132681
3.0051000839262447,-26.620304153388393,5.270917115259742
102.57819751970234,-85.40122737992131,3.4084032749417483
115.34778555148979,-22.264315652412314,0.36235180845034076
21.424177059141698,-109.42416708445239,6.068581318361287
-157.3543317366535,118.00733857072339,8.981094127573371
-23.708110963099646,-96.96507381185756,5.418790959867695
-46.9021066472478,-150.59290654953506,8.296093479977834
40.85540059051458,89.22415496216189,6.271863274561479
149.85273477967155,78.98978583866779,5.947169985447349
98.07188451951176,109.36507436152327,4.91417778691345
39.85574281574748,74.77301666326585,3.0754232759918407
-48.94268065018979,-12.202642595801198,7.937421511308198
115.31420661463206,9.992876739948207,7.17972306405524
26.088220508498143,-236.66845280592796,3.518388631086645
-21.15071869018071,-43.93181493924216,1.1716919470079157
-55.78998856459633,49.09862953852865,8.70277863337365
-22.120458512308318,1.1634516155551984,6.132884623076079
8.403411312777253,106.41901675699594,2.7654806024888923
-77.37132813954713,-2.822986217384586,2.3978432662233464
95.80268815732094,82.67228381565056,8.180288412491208
11.39234636515328,101.67526575563173,1.8532716497244373
-93.38049027203813,39.67384533247926,4.627432987061599
62.761847698326044,-55.18629250312331,4.388183840052488
83.32561954241434,-89.10006159070343,8.023573480851155
-110.49005087248833,-52.8172417197369,6.8750373275508565
-59.8930719913034,56.41074979004582,0.9476653645689548
22.60181103300832,-16.647130108798308,4.125752200981499
-6.2966877797532,40.012174827521484,1.7002127702410308
-177.61172157998593,205.98484745175708,2.047707723772744
-66.79222833852828,-8.29646238669922,9.726155618169422
7.272440608810758,-40.09001979537061,6.386478872921265
4.274508412140865,-37.899135419701565,3.748384417002819
-153.67817646680254,25.030514948176,8.93557984861782
-89.73367931805069,-46.999721461666766,4.415183083715918
134.38030801397701,13.814771909238221,1.8893484282440232
-29.690306526955645,-79.41602170571406,1.661748914420118
196.5416807943887,-70.64010778504786,8.3075220949268
107.9548667435277,28.347004298158417,8.966954242060435
-51.88038258012947,9.497266672839585,9.793139748070388
216.76629476575565,54.028459392752616,6.816309932580614
-36.868278513058954,116.14950112801006,3.3531243788537592
5.201715195614058,62.85822458805615,5.720022898016443
-30.65276310258078,215.5086817327291,0.9656011959345145
-69.47164748650827,-296.51124634484034,0.29463552297265605
-63.125624484525254,-11.699480066186048,3.5275123725370294
53.301064085205006,-123.70388547299615,6.831883590550097
29.173886079272805,-138.76904335867943,3.6815257933858114
-215.83571085151596,27.428068886655417,6.362421052960149
-108.02835562132293,-186.97317900049345,5.652415049057748
-70.43636833519669,-17.915958848260168,9.970093219946072
-125.96119765060665,47.64357561017983,5.614090090525333
-6.760284904565442,-118.41564248726968,6.307160686218365
-68.44708170553461,-51.14111621394467,1.274941005109651
40.04301889046108,-63.597673334692615,0.9198147889992392
-106.12523092491585,-110.28996890505705,0.2078932843706427
35.82174916224057,240.0522652065356,1.5794450455103948
-94.7906473811865,-63.75827972423792,5.682500420293214
6.633914558030196,84.17507856330518,3.895413016848406
49.94920268230235,-214.33877374069453,7.988470793269284
30.727499829238823,65.11771674267138,6.986062694217799
-16.019216689269157,-62.09215006510905,6.307662445355908
124.0890091312568,-21.29348849993923,0.3597362137799398
-82.81133287849785,91.96867711370537,3.5964541795933735
118.15026832628193,-45.44046700260573,5.950470716093806
53.65581401591424,30.00656461184682,0.16538106124214913
-5.221495203802154,-47.048816551733644,2.865625273654876
150.59345765060021,-34.95879491682617,7.665913508276411
-47.69557347859841,-34.43747616071974,4.674716792815867
-141.51649335986278,111.44692500231292,5.537213771361403
-66.03674878656375,47.591647229807705,1.5897046875802745
130.0154001195508,171.58342085495923,8.93600974344203
-50.0135806987688,-276.19791448660686,4.320714498138667
-97.5074334246028,83.16554324102174,4.954117788698732
-163.4876356733669,-50.945518552169766,8.866939335914497
-4.652869914190539,7.961196292653174,6.737201041382033
27.436084770438786,118.81015976591178,8.478287975692956
-49.10231529398655,-166.44918443106448,9.432941205527444
40.506173822064774,-91.77597619817503,5.069153688128067
100.49465880240433,7.715771058056803,4.77362146073446
-72.22954144356618,-9.578920304801569,6.2222316989319015
138.70470243551324,27.571384755726886,5.661061868967725
108.55876143349022,37.12385196808773,9.859337253586972
154.21057824822097,72.0323319812874,5.111598739103497
-77.18898405381577,-36.05199673979443,2.247021975567094
-77.04680129660605,-122.93285944190427,9.522391876082622
-16.449964919629753,22.722962253226513,8.116591596695493
-87.03966531234408,-8.097950825193884,2.1894599423011654
79.34971095577495,-8.938586296230932,3.8911495214275016
-87.46333996778787,-94.67972787761376,4.558517190927907
77.77172151608193,111.50405144035729,7.631583337843603
48.779776380624476,87.810185879204,3.049037280090112
7.772370036954179,98.44804979173443,4.726467056749577
-92.81777082801636,-85.1987774240742,2.2732277630836784
143.87466415395755,-265.0761791052692,5.895715485988031
9.990879208088625,71.9578559539534,5.272644486993341
-77.1450568911089,39.090965015671514,6.941718820683439
202.12714675566787,-27.385067489720864,2.7208796651350218
-82.14153851840742,20.938970530832655,3.1090043573429726
113.82600778060123,-136.6151382629373,5.823441647547362
-24.55610121712772,-152.37203511514932,4.56061472305776
91.16679442497627,-73.29682092293021,4.309222371790392
113.63882753388945,-148.08728658944366,6.763207027000565
131.69185193102646,-34.47208318371686,8.225995760793149
-22.244183616116803,74.4623093826514,6.264874347123187
-89.47172903632223,-4.656462229550272,4.8359281499742455
143.50285537904162,-133.78628514197828,6.048292481790817
4.799793579511756,-144.43722062246317,5.2601131800862095
143.57916238270337,-200.00900302817405,7.337845188047806
123.21768668594896,195.58403572629405,0.07758359373497337
-84.02919016930325,147.06712250863416,8.061467451895055
60.38448851514444,-148.1816918695411,5.503168941146614
26.040944171910873,194.00550841698038,2.3387124371738564
8.080182164924281,-94.5230313488974,0.02005685428035031
91.20298623065406,129.39266175627316,8.075085948296582
33.271258170476024,-120.92159488983478,0.3167059556178897
136.31560891333413,-80.1246763015328,0.1662458488452867
-25.98138320080048,7.472704216303437,1.0426780288523374
19.283018107229267,161.5626512927057,0.12583012347223255
75.88281097053192,60.45560059139786,1.8048555244797904
-18.303140023644698,-0.6046230303291943,6.378380360529521
95.67723261591226,122.09590451621837,5.652914842727381
-17.785881203844173,39.11151129704437,4.254273388692681
102.78839802665706,-14.706699364217425,8.426823824389851
-1.4904240006008076,-6.089689647904494,9.964283149490619
-90.77060379310224,-11.629674548746857,4.368684592108256
-176.56187889174447,-63.6647172291677,2.4526970648335955
-62.64783315338899,77.06035801136758,7.836585520622807
71.04428735805078,65.26846160304645,1.4187214629158529
-86.27942782325678,202.16647960893405,8.043572412132294
66.59561144288844,113.13208745937682,9.931717132967961
-223.99730470173645,181.528893677494,2.925481580749131
120.58917879819133,-125.75977757121517,9.64931274476156
15.788057547652762,20.223811364567393,7.780099174472573
-13.47108407853152,-24.774306042182285,9.5661707751566
-69.64913629942255,41.08763823207717,3.524623967796141
36.8350099561742,-59.69618881075965,8.472446852896246
-24.8915119707844,-123.015351944644,2.5207283547361
-63.52047579764708,0.4355276507223003,9.138017331614678
-58.39907792890252,41.541504366528905,6.302345895319109
-94.9538958078126,33.5167301815873,7.175493567252259
-156.3496638401344,66.4553944657738,2.4945267072090918
-15.020726975653778,-46.818237133793886,7.931441637611968
-57.51010446328322,65.73994626896244,7.747884028691299
41.84888669188545,74.29103164469,9.289331836662392
-24.462699382766047,141.60064500330435,1.1799464396075754
21.36061271483214,344.6849497419062,4.846893064045881
-65.94389114377122,130.11914704222534,9.736445105138735
81.02961298329816,32.008047347652244,5.535178283056674
230.53583962736374,-66.9875883857113,3.718144446934243
-164.76506935577237,-196.48348014009363,5.088037661269355
-21.63999189917687,131.8667788395656,7.60966412181298
-4.206132473799354,-128.84519954911624,8.764866059805069
69.6320399206135,74.70936629272977,9.541909124190065
96.61008110320311,-146.0282216889354,6.636371876663727
24.403900235256692,-281.34348457532406,3.828834309897513
-86.44646465762085,-17.4811711923372,4.807457397239182
-19.858319063419202,-90.66698482259889,7.092941314756218
101.16078606926222,81.52134136922697,6.7454215047317225
-47.849758102478894,-90.72591576777775,2.435324340451428
85.78020195239391,48.004530325465964,2.267190746395338
-53.479420438872936,-47.85692511885218,4.9498259085235174
-55.10496312623234,-21.836322121331335,4.675818153753618
182.72574862771515,-108.1418350155422,1.8566634299305074
74.8643147260863,16.05891097680427,1.4380166112056825
-24.69556596891948,101.49437206556642,8.782695250838282
-148.2745317621797,74.26666705813423,4.727116508640826
-119.70972712592713,-39.51918039898199,3.3508786815203893
64.56743095993288,30.535233877725172,0.02232588185644313
39.338997909848,-170.64114989465304,5.208126492148237
-26.693146763615232,174.05198881699198,3.1659264395243145
-66.10642259732266,10.306502614870354,8.51310366560089
-58.90263954945843,-32.734242379861485,7.507941272931888
90.50033729649712,73.32361684242308,6.182284309558401
29.325327084988313,-0.5224214246960978,2.2219441258292036
46.0768641543997,71.98360256058297,9.057567504138271
-24.92409039150491,-36.55685669420311,6.075162441870836
-133.2101981636219,4.18068640842393,1.253305281558278
86.21985228643995,-92.58802037518272,8.002070138754725
14.017575236324307,-92.0345703832606,1.6642803803708883
168.67784666894835,-24.514030573083993,1.0802517865572336
228.48880323899857,98.02213956219214,4.358279580512451
91.39205353574324,-231.7365873713691,5.131599680740134
-48.80667672034807,-261.52840974912164,2.4632672320699776
-73.33061117755244,13.467551717398326,4.66131756569823
-7.652705465911525,1.8560594841848608,2.5657523184209885
21.45711599089067,-30.313310243613266,5.506127611914687
-41.43234615730927,104.38435938853054,4.595982232219046
112.86513105483942,-123.8523361643542,5.824500613169617
-9.67563350888664,-51.03942811452299,4.927214620325379
-55.246750557567694,-188.93627568029413,2.188881039314724
-164.0875743162706,-112.81515064379357,8.4341801859032
-15.025198381517482,-21.026699121058314,2.9338815596057533
-110.33961003164441,163.7334163755998,4.205726534061417
20.021906007135968,-82.80873473794347,4.5910116621387616
105.22710228154173,128.06162123991265,1.1120189336144837
47.644855616603806,59.96555900507092,9.289714428309201
24.185340914456685,118.99488615530886,7.493262194521546
58.96898745412796,87.43944802385847,4.936037567664442
-21.79811229872948,48.66975952800646,2.8840333024828224
93.70626616715383,54.77062788280763,8.129978255346892
96.11407711985309,-78.86715929095804,3.7885013915262036
-114.01372010383723,-48.903410053348146,8.057577268744918
-101.6531014535645,48.500661286228784,0.7707838283823876
44.96102877765807,-45.116831509916686,5.338005539249087
27.06803716410484,-85.33933723183858,0.25617446633725116
42.918898574026635,47.556363629491294,8.377282949991558
76.96497155164758,-53.37024538372178,4.6348887748351695
69.74894290069588,152.41815691512747,9.78028414655668
-76.90341084389075,70.29465111502661,1.5911542475007912
-27.90656243263183,42.80439817886692,7.267607726623185
-2.7120370494509896,-110.680598912754,6.99601085341119
39.675983178921534,25.66112071352261,9.880669980505333
25.998502032623993,-114.61779744678023,8.008734368297414
78.58766170009922,19.74193353366993,3.8872020258166398
-22.010828353080694,-12.935664900262484,7.214882890450236
164.77688049459007,-147.30904207433906,3.82190489887257
-31.77934875354532,72.74198359085449,3.3716895538027902
169.64181177235244,49.2128609941499,5.616363445239829
-70.45621763857484,43.400000362869804,0.46396246422367393
-120.04373632453348,-85.17248850730228,1.0477606054963495
69.66522071712,81.96527904165708,8.690624594797278
16.08536302051691,-116.44152875376197,5.505908990438025
6.6639866691114324,78.3473512978322,5.833342072527797
4.614636440549583,145.49030780334036,9.277543852549364
-47.84630673002882,-103.72785787070622,9.718074100729288
-23.66030126267088,-71.86866470253318,6.084633780439913
101.87990051392248,53.49554392733328,5.6417977309585945
-50.7017961375831,71.15889391420214,1.7014710727136906
-47.18767820246418,-55.36188301677054,3.2653063470634116
-171.9770165714344,-15.526564208834351,6.4529545099444965
63.52307910651799,125.2048413674515,5.288212142461971
4.241867473519188,-115.14616849315247,7.502622389241172
92.79916211366658,114.5068734003432,8.787174537145393
-35.360424195633705,-171.83904786901542,7.6006673312511
-21.52216375121884,-22.83650880643428,3.815336060213752
49.65940910536482,-9.981646066226526,9.661885150838364
91.15762075934948,6.661943258819844,3.533687440492266
91.10600649819885,27.107748613391653,1.9354461785166632
-87.13249676875787,-5.056317169008672,8.127932638958859
7.986944754716172,67.58250598310914,5.67229082670048
219.99708107967,-68.28645288099611,4.5265092126724085
-86.38847147354042,-129.17380623105785,0.6293375945327706
53.33524197168167,-208.082386373923,2.1038644450201396
133.73025359622523,179.28455066284332,4.2340795808123115
134.7395806003966,-82.0993679660734,2.5195735582735104
49.63159214864425,-37.529645993923225,7.402317182753669
-218.6947296638817,-66.85539457658561,6.582935187473864
181.67880113799853,-73.60263749331773,3.895746468613596
-49.25873094729247,196.0872193229545,4.843181403798663
-183.29967803991295,21.041072448972887,2.818309558525013
-197.36588354289398,37.06293973314228,1.2797598205359861
96.26196074121479,-163.4551089617596,7.0143249111930075
-3.7460705121518374,-1.677756754525278,6.05180841046924
151.5808170724301,259.2249790566856,9.038870978368703
173.1461404854585,130.16512919619854,2.804306065301707
42.042960627412725,-78.60331571674402,5.0618767645529665
-126.50380083933246,-279.6224203348979,3.4738408775963157
-89.96865488123355,195.08408198867014,1.360727979838685
-48.77902710582869,119.12578553884119,0.30859289489632125
-186.77715098573617,11.301632732407791,4.448517867545193
-148.8881595327162,-66.81941412616122,9.80335361165942
-51.540502226311624,-51.33944847688432,4.229333476616012
-142.27790428986734,148.41221203849528,7.501834381576017
26.760765744092573,-95.49360466452812,5.055834686722081
61.22263956347599,-4.073151254722708,9.686491048602988
-31.93794937941859,179.43660324796883,6.421410792332084
60.160132081964704,-87.51439941582213,7.793141237815574
5.967390969819349,35.20090360237617,6.712993496527354
-64.1741983092406,94.01245650733043,3.5552238961528513
-113.28543368115555,-35.284647214960664,8.992549812992298
82.05980858684771,-227.10918411205205,5.586929629714867
5.667974973729879,-12.370964592663029,6.225489287787534
-59.961292266046165,-43.95747970407843,2.4982326191990225
5.2230911097565,-10.961545526560625,4.753668815967557
171.88693848867013,129.94267254050416,3.363656231647343
-60.34218625473159,-54.82473652510726,8.881869478456927
109.66230268860122,-96.72639629120424,0.45708669562818827
213.58604177718576,92.7983943167813,1.6432153100877989
39.771259117932004,-75.14536043327642,0.8724608559248725
46.72345713980704,-47.95805556185858,1.5368351731034102
-136.19711551235355,-84.30457941092858,8.887950257318638
-161.79991027989274,41.993386080103356,0.2592690549820331
-94.56928420044105,-31.36851620575608,5.194362622370331
3.8844640053452624,28.26134711331232,0.724664915458737
111.67864108566661,-58.28952047063585,1.6921204689548364
-6.377099527453997,2.3657844918348125,3.831744236083069
-110.71193787833332,-36.62266604645531,1.8524847976957892
-0.7467611924032354,-82.1585325425926,0.009080484173678016
-41.365359012959196,-67.66683043548856,2.248422742121293
160.64797838546062,21.666712296193847,4.520100463063029
4.020527022357177,113.16530785629293,0.0008372371879039608
-110.27692486355913,50.528429616863804,5.69245219714075
117.493990301642,112.15957144135996,8.099075236243296
23.03007989881558,99.09088347645539,9.318549584887755
141.41462479706374,-95.64408594795117,4.270668533163793
-54.15512015205395,-189.86375866521337,1.7055855712678614
33.025306572644745,-5.89634087820688,4.4997492510382955
-91.53462924041322,10.584680314835154,1.388714882867943
-123.68975255949692,64.58345324043238,0.3484186012149182
-26.101513405595945,107.84076060756618,9.082544425006587
-134.64021918972554,-139.1078903446299,7.99025372046067
-185.31889045796862,190.34673772539276,3.3303333579343675
-207.19398851236198,-126.24652673370782,7.9907392012756215
74.68288949740742,192.20116848785253,1.7188824503017197
168.6270127621552,-145.79417856558462,6.679025993562568
160.37861222796639,-167.8131776697829,6.997762998371892
33.5821083599548,-35.66822887593307,2.8764330910729017
-91.96300393845962,176.14804113786013,5.64016252271328
-72.42326466700885,-18.563802965589662,2.0221730908259614
-263.9018314825265,-77.5264344681397,9.849142111186554
-23.637803781063894,-73.82231520732623,8.424132127263332
14.557309576344155,-78.72960078013223,7.360437954433408
27.414054796740718,-123.59786816964362,8.519735430983072
-25.48601198886568,-41.79140410519456,8.307718308545141
-27.77490055536076,-184.1938493401921,3.6995937881626775
69.73240477362206,-152.61806028105687,6.872345974953275
-237.45284277364678,62.30372214166656,2.6617578964504696
-136.6133925881712,61.294062178851405,4.0391894723851784
55.94934965460381,-10.615213106267413,2.5228026944886626
11.243647836891114,-95.06460583655699,2.952181945183714
28.940675984505905,28.35232258586441,5.149357821704524
-2.593022363608162,114.19509263212879,9.234374500552113
21.463072790685096,-82.87529688393634,8.034120987254301
-126.84980119474022,-100.02955552096383,7.813228515525569
72.51887254443277,-2.609204099049382,2.9717903086975452
-80.73189360089417,-107.21615274021028,5.934750526261116
-47.84511771937661,159.5273663848292,1.929339686709568
99.16081275282525,31.442350534285435,7.115948343194392
-54.100461792000345,22.150168180929715,5.135534693417066
-7.745077461866528,56.1962736807746,7.504811462435976
-75.24320385449423,-59.643429672088175,7.762256025850447
-81.18718675895411,124.69014778353775,2.674915414434853
98.47287810776703,18.552554194453982,3.0993696231041823
-224.87796568344845,101.91633226091359,6.463108679792066
-98.6326234548328,-103.18417434598672,3.006765443858038
-30.781358540979397,3.5960026653763086,8.385613999484514
-46.00950016182328,-103.91685684632156,8.437313671568317
-29.70668459464679,1.4706292768889109,7.090657814642752
-25.184101839014772,98.85195382499327,2.364379138006736
93.74491792394072,131.23756469885197,1.865859812014664
37.15585072153217,-81.80211728920558,2.3999171178374787
-92.41210158398006,-111.45052682341516,9.775868380724123
-63.931263588189665,0.4652805379452948,4.561985057689909
127.95695887980969,-96.73285113981795,8.072645800936218
-104.90780564072952,-107.23925156489584,0.1969944949238478
-24.688959193440503,62.617836431938265,7.612693812453244
-167.6325985958888,2.0366099680105707,9.464238367651884
167.7157432513414,-87.07433401249101,3.5822186254940203
3.2108395849869185,105.1542597381894,0.7458471751560902
171.18913617500948,15.153625319579852,4.097944044628331
-148.2500142815105,197.72326993527662,7.14556866640586
-3.355419459813701,-69.32105789239394,6.4771902303513675
86.24851884677092,-47.79451064277092,7.977006986299957
152.05441440056856,113.13777505192104,3.0336171720426677
-81.58668960689806,-42.59378429639367,5.273765345792324
-98.96165688931625,201.75773172158728,6.688136642210778
57.760375825960196,-104.77810577992453,1.0630951705611658
-166.71641949139482,56.53740707294389,3.42388469956194
95.65087116606942,75.16293671899031,2.9150296626368966
-66.95889941809389,95.3645727350151,5.800766980691094
-161.44827219418315,59.922300129133745,9.556298254245133
65.70741758945017,144.89311616996685,2.3351636688717523
-168.69466902025653,-68.69315368392965,7.393386663028231
94.05682072033706,-52.68822381995095,0.33661750592468787
43.78228374851933,-105.10649623065768,7.959747025856884
-25.94046698441591,-6.661687891948868,2.6196468721252177
-91.52256671536516,101.90043114989035,3.5944346694453544
-10.344837497916695,-141.17657313074508,6.56450335103449
144.31557455326492,74.21675741072372,5.57866518479944
-32.36657693546997,-169.16867600428628,0.5282975644400956
130.95079563890306,23.413768465318178,8.585027898506432
-71.3724223000037,3.414063229327317,8.21187936402925
-106.80692359435722,43.84529828130487,2.6428568097169416
18.47289652430426,-60.040786163635104,2.98939724508835
26.715655289915325,-255.77681958994535,7.960709477467184
34.842883961895424,-20.64537282141596,7.231209585554832
96.3932128718928,-160.01770505504444,4.2873305562707875
74.40682928030031,62.83170329961458,6.489016486769535
147.7558326356725,170.16881443822783,5.551652031748031
53.33677025811022,49.85216981196379,1.5641189454064164
-102.16911838057534,-80.0946092981358,9.381946144415247
253.54188780974235,-1.2853858606396495,9.637934957744891
130.65631373936992,-169.1976122855506,7.360393875442332
-97.86430098870876,34.11967973365467,3.7348063702704195
-45.548379953669276,1.4442980388505553,8.055547979789832
78.75152950073273,-6.195518491131132,6.18548484527628
119.7379283142053,-52.90827817788626,4.836894619030522
102.79322983024512,-141.97922360626575,4.0494245544979375
-8.919327566291882,88.12940368778743,7.185917808672809
10.232172346251692,-25.93613030997143,5.769398883179373
-107.4873019087758,-176.2154506574073,5.437107881846598
-72.73167056436,25.96169926595958,5.5872518076801025
4.8052720258838155,-103.96866647968608,4.373044393332584
18.634314238225116,121.48079123929509,2.96842910800007
-48.291156681549076,102.18248930660239,6.032717099362377
4.413444949324149,-96.6408495295899,6.817021689752188
198.76265683527458,15.867496554278743,5.459187881325979
196.61263083295796,63.060540541044375,1.4843478145859046
-3.141226027990313,55.89712506189631,7.201986553432653
-15.625693098884682,-46.25721041188233,8.640089381559038
-46.145500611017525,20.39977141197566,0.6129721893179318
192.201452426988,84.22587700120175,5.225255650835297
122.1135757831818,-54.3186449994195,7.248313591808426
-7.5880967058768745,62.5726644268676,2.890682634847721
-199.58054146258138,-116.13894717899105,8.725204832713747
96.31766213612275,-53.61125850121152,6.665717624364853
-27.57708571285579,162.2278459442789,8.119171668867072
188.19894742348063,112.74103794952129,5.456066798384221
45.380662155518806,-89.4969228292468,2.552058398577859
80.71620360152059,81.33671688945213,9.155858636002975
53.736324448366204,-51.97843737241287,0.008658725219966579
63.527040203362695,-121.23314933180636,8.964068504067074
16.621194593833373,-154.40547760827235,8.692261234141812
112.71648246189423,-97.88827957350803,4.1620119853834945
19.278125885453797,-78.12413563212016,2.0463671057809583
136.5622094930616,-69.9904130704644,7.0905007108912566
85.06039877660474,0.8413287569473377,5.123576283354204
144.72856063376085,14.188338025332348,8.170553774854104
181.87094578125752,224.32027371145935,1.1607315271718277
52.258383902061844,-81.77490321442346,7.933876960666561
70.91385174773593,-15.674779182777595,6.012339057293614
86.22366188241594,-70.81794201623127,1.626087584025484
9.907967605593996,237.7192292094701,2.471160777062009
12.320138356523346,-46.06891527460037,1.7862512314851797
35.742348723324795,173.7770900152242,9.328286294443954
88.47649525181434,-31.75330668439269,1.1613710847429248
-167.4563315416456,131.56214034002497,3.055822518721396
29.600881939309016,26.235866462756086,4.069559386279553
110.51559901315994,-71.37814534031405,5.641385668883968
-74.13400842418591,-80.63368667617016,9.558088252904186
-4.799214015178002,-5.945810319232849,0.27055322731438625
-93.83259138943474,-31.337958881545553,7.418040803382484
-220.394311873818,156.45933092619876,4.36989733403673
164.60644046881882,171.1008719837397,5.996886740233068
-176.89490855777404,-19.793577123450824,6.564863033414248
-56.42221242029299,-74.45566596283558,1.6578488988300766
-197.43095830603866,54.27523183901278,3.45306751785
72.27703406316728,-119.73806748536038,0.15939242479139248
10.820020517655676,189.9348283305185,3.600434553178559
42.42944469451383,-40.16068457314694,8.36088832999745
151.3669201101722,-183.0820344431478,9.252359880279325
44.939284291256826,-210.01598823198594,6.9879384563881155
-89.53060405016356,-79.6062310479043,3.645721540114896
-1.5648130994417702,-26.595995140625444,0.20208529465877367
142.58249715056257,144.28050969329647,6.070519573528457
55.457444393541536,-12.701399394736484,8.692181606645349
-27.204976481825444,194.6214330448926,7.384848684413843
102.54212397364468,-30.36458541476947,3.3735610755991585
45.31922055951977,163.5644303387133,7.813942157655189
111.51504525144871,-53.29019242195676,3.1760554074241334
-264.61107599337845,84.54450556698315,0.16482316964843258
103.87583396063971,-37.23089647400054,4.580583149961229
-178.09470616195867,-11.65467051814091,3.144928466875335
41.57767175675418,-22.64378348811283,6.656112058427467
-121.25718585732518,12.75674584111201,3.081473750841961
-99.76016028059608,93.1286911525022,6.857073188200593
-23.975126980210355,-84.71320920240571,2.862878141099403
-9.019462184422599,31.43034156575869,0.7253658998747614
34.25991685305611,58.752944244477156,3.8862669258200713
332.17543917706655,-121.98761056524414,9.28914874855465
-78.66431509560253,-71.78066813442378,0.6334370102466425
-53.81322694285352,47.81908005697484,3.589779551200396
55.34814471838805,254.1642343139379,5.0948088606908595
69.31523257940377,64.68772843968928,0.6492083536156812
-87.53182151770854,70.93542599361692,4.265514324185668
93.94687191495564,-98.79274485688939,5.169179540218579
51.126921671587546,3.2307310465690806,3.4096142452809985
-105.67071665960097,-23.148261396735844,5.079755741955277
128.7651775049721,71.01765044100598,5.537070793393555
47.314323774806525,26.58684234116246,4.1926713712696095
0.7813539275331014,60.46983372162277,8.024545447385654
51.32005697550972,-27.28046385231619,6.2223308120252145
-9.639578220006486,-153.0228042175885,4.23408176168362
-245.0736008710885,-125.85861537714389,3.581811635347462
-21.83879770586019,-94.16565536045489,1.312846999961187
-41.66045950551314,60.78032060810258,9.893550831640198
36.23036297987608,58.09351114954849,2.2797143164286737
-0.6971320621972834,-183.73882643678036,9.376311043687352
32.00803846452682,-26.419007756900502,8.994450048376377
210.64075073889134,138.19828452635548,4.593075251344619
44.981679934663845,17.008690560860476,8.852287724223036
160.85893092798707,123.71562709368555,4.891902258413303
-53.83118340013077,-103.3883522339793,2.5320889794988766
-60.30517588738811,132.9900280283618,6.797451150331551
-103.95380981420092,-105.93517971659962,2.5248362958872517
-60.85430080376115,45.71761881951038,6.942799542733363
-204.1188324708286,22.686923355026284,7.459169176789916
56.25830301374991,-90.79790110199178,4.269482566066671
191.02760565383198,1.106242468181653,8.436821292126947
-90.78325134746473,62.83224392023351,5.891843647176231
113.50250257632639,56.43875271262493,7.507472557463355
-166.29761177771516,105.10146609765627,6.531861451087187
-79.35552839163084,-22.591941787148617,2.709701917168755
-121.92374880051501,112.51459686474237,5.900412755053753
-267.0024739094695,-123.44346280128657,2.0476311543312997
-36.97539354941466,61.61420251160186,4.837492700784996
-34.83852532165457,-87.93663020176656,2.0558180195187816
-47.598921357530784,-107.10040558756634,8.788377473255736
68.18596690780254,53.93139485574701,1.159043489976651
53.12186329692117,-2.4275524116954985,4.2994237426580995
22.750141452033848,-20.511051354979905,4.267443947401532
-93.83707603433032,194.63731855453116,2.601013964053742
99.80369495775304,62.829138231386295,4.684571662826604
206.05029284562565,-53.27060064852489,0.27660385326851
-77.30060950876778,-8.180217886595184,6.845050138870792
93.86061339673101,-107.08526422345966,2.269111380424318
-36.94268678918439,141.26361240288546,2.437092841134725
-33.198172834093015,13.636697972189445,7.382293209921248
-124.40621300862828,29.366318520015337,8.243691287303882
58.01775082467609,-85.92413583068347,7.516924086518289
-112.11513860004519,70.25250724148289,7.9484926576784884
-58.19527760389123,73.10300616705999,2.21592354758412
-115.25955039321072,20.031737104342064,0.2532432817661845
-86.73959216214548,-116.05889131675676,5.250358252927223
-17.925168350263537,40.3732485097325,6.788896145903833
-51.312262904660265,-40.26103180180522,2.1129414278450795
-4.080281093097478,112.23382084322641,9.379749302513007
29.47513007157848,103.71926536341087,3.90763385008555
15.993102221973544,-194.4343649033933,4.085625343525283
-73.68767415645857,32.950307866199694,1.6820278168191805
172.7627437808258,21.802611835624468,2.1997096126067595
45.39670944975724,2.6404622004383405,8.757483914185215
27.92651459178504,158.4431092789591,3.9721488112049452
-199.62779716989326,67.07587692498579,1.322301601047703
-170.95414438232154,26.061255592617044,3.6120559924886955
15.260323172391486,-95.69837292322131,3.0074817093518122
107.50109898879589,37.29231584523209,5.091280846089252
-77.3040414527127,-45.93383659546613,4.210019035994073
45.32347554298764,44.97194915325787,3.723429589963856
27.22374669973741,149.6871085639742,9.438733827186944
-101.83185156394342,-63.503321376157395,5.680135902854168
32.38949605664714,110.68546883352373,4.34152577666263
10.538508417892528,125.13419297065637,5.279002488638374
44.897693040912316,8.684209452768162,7.543379197567227
-34.431106316100774,153.4689646735134,3.108777803164513
91.3235458422383,-51.64325611747911,0.38587747644190484
-75.48131648713078,14.774719985919837,3.8451146513749057
-56.377682333191004,44.978692409316665,3.637705070952176
-4.64516685282667,134.4631568050898,3.3152590049856134
166.95760555130462,202.91991365869015,4.854693758553959
72.00733209154727,-73.3662961074504,5.290376227906934
-137.93336098923427,18.422292847560357,1.6470876639390453
-94.94702732249165,121.8301231495075,1.0962291336407526
79.05693245261668,-131.33467143891775,1.391311981593899
-34.521283540010614,-179.6092606342829,1.050818361062149
-187.05865057993663,59.92105968334987,7.948416893028644
-3.0017066277571542,3.2161458309353117,6.875268399392146
23.054103703383745,106.52439663641655,1.182369655473422
-247.3220843234028,129.30131649189408,7.549699652608375
107.29613867558861,-203.31073769258566,6.891135296749961
25.744472511184647,130.3286079725235,9.714795365378713
77.65939449074126,-26.375004449825845,6.416892798609442
46.815376088902546,50.03631466461859,8.55930338941166
80.50616789205091,-30.905117478359102,3.30218905121481
200.09501242784475,121.69595284625781,1.428080198503875
165.2090185223868,-100.75281487760822,6.588174621911723
26.513457637179993,-99.37665229625915,2.321663306115055
-83.37625738306158,92.43346405447372,5.632859724864689
86.56904584642024,-109.60525975810967,8.98729309609507
-17.88808749721299,90.66482225619222,5.262878936634156
57.66100548876959,-5.175452707143795,9.96600848911365
-71.0231404532386,124.42685274715635,7.081811605114624
83.43098156671135,-47.20977639782762,0.15083611585988255
-196.26819771992334,16.91352540498783,6.124370989887167
-30.102170173008886,-21.480193262024347,4.388975691643868
-58.6480702660454,-155.35463033394575,7.077404805673938
61.050362230039944,-95.67178032634381,5.794174776065307
19.526657630466595,19.02946742742804,6.922819874517963
32.94571644693346,-54.297152126592295,8.5083842186093
-83.20905671407397,156.3889787169628,7.257897228696201
-24.62042969988987,88.28777818942872,7.173717261577055
-51.89561782321464,173.9182081735239,7.597538512996598
-134.63759204650648,-90.94420115685196,9.519724157626579
-21.713235355123466,-69.09853507773266,8.727714899163145
154.800545818849,-101.52785137338773,6.906039320502324
-56.120666824414634,-198.63907589165171,9.207444011236722
47.16872988514765,-248.08456417628352,8.879897285663715
147.1091922430704,88.55705473364644,1.5026406096363487
-86.07664800532221,-131.527347282063,2.395229710323793
-44.96812583793005,48.48762073972487,2.5230629660409
-42.23444372056006,-59.609881041959554,4.678210311189169
46.414906299087136,211.61175597509018,4.1160981851325005
100.55223832960938,-74.17794045227467,0.3394296341556169
44.206199871772746,-82.46448934309991,5.570986588163742
48.75442009734586,-32.025678627749606,8.340005801878231
-156.11816539372697,-49.192905776563435,8.95262408164524
-32.36468778309224,-148.6970626039232,6.782923755744311
57.76105018581463,220.61314738135752,6.259165964586451
-95.22034023656889,76.36675620438996,5.210555390948953
29.570562571214175,-14.783484079434428,0.8564373821639426
34.78473840615317,-12.1277442700437,4.972248847122494
-33.63532720091506,223.69264470060872,2.005946823320807
46.831538106432866,8.13370143387194,1.933483566505968
-1.6906597908494865,-25.390746938993157,7.747550701545799
-0.07505396336652853,-49.61859616400082,1.774797229420052
56.95968352149529,-80.5346767739975,0.9103648808607812
103.60701936439402,-3.5817032405755818,9.424640591690698
52.29539489329842,57.5690697757137,1.387531727453728
-19.755929653688835,52.05777272112157,0.352985049000506
-80.4866854711513,69.94884579058662,9.169702860006547
43.56043696194499,-247.63359395052507,8.644668111236474
-69.03292003466834,-29.134221530121167,2.5985754936447014
-11.529552178966247,-72.92578008886065,8.669924634186934
16.90236008889379,-38.01551658879355,7.213204181241482
120.39679893212222,69.63829675480477,8.797358939035407
80.79916451023449,69.4143484034193,3.0846058209943585
266.82279556951903,60.034531000701975,0.9895860714418148
-47.02512707268692,-26.29853429739259,1.6880766102455247
88.2859160243362,79.08780550620655,6.890385778768088
65.0700845775756,-36.752346359679244,9.404708644023108
-142.8806931944838,25.07167228504162,5.549462611164757
71.46698004186194,-98.16690403982503,6.084984048664669
-32.58650295669152,7.416580812613965,6.2103091035873215
115.189721418092,-5.615530938063271,0.41861847859443135
-56.859010564123516,148.5199440956283,4.526890079040671
-121.83465331187368,-23.3049539581165,0.8129332680983969
15.494526754773416,-125.49314030645536,6.934544365291547
-26.761808288920243,94.82629319576297,7.1181947635776375
38.97895031586731,213.8763631437487,9.801592718635728
54.12056478899946,111.52309438189722,0.598146559788465
-109.17418512481535,-69.5595753082054,2.8371310460142887
86.4936545654161,-26.263689740561798,9.515631711517825
-56.126357482996056,-28.228786244532934,9.590015953432793
6.849416811284913,96.45585468385913,1.051101359966291
-29.299512154864498,27.894309695717872,9.01298087569492
-88.21120376434385,108.31741920500511,3.247359610014372
-24.524619952118886,-125.02993102788744,9.990310305446323
73.2698627442337,-75.74178181178831,9.908036047322481
-39.79985458161592,51.024035675668145,7.705130971477244
41.03321831193644,2.0904026221198255,8.677575785517858
147.21592859345486,-128.08175186798454,6.5845616474448505
-56.66170728766659,48.59732229499751,6.359025582519365
-66.99556238599857,-110.3592034433586,2.120498683592965
128.00486786946158,-84.96241113603135,5.884604496258826
46.62058237436663,144.00427744573142,4.977399419523999
36.82333005785484,-184.35593130074096,0.8990436867756535
-112.90305041653777,-56.64302899334641,7.69470726648256
-198.49789600829354,13.597963945957359,6.684676837972989
-35.61171995017834,-2.307360520903113,6.26908938664446
-33.79299787583541,-154.82716232655633,2.7380351630568054
140.38023549923474,46.73424058876615,6.487915084204347
87.47851534901466,29.26602957520196,2.635638740604179
49.730108517733846,166.62336967518507,2.459561683959375
101.36841889360795,26.96197190961942,3.4374361332352263
-61.19321804566206,-137.98088556110613,0.21402386212911018
-128.40790809668792,22.470571900652615,3.663746933540044
152.99512131893246,-24.685063312064102,0.7571145705033944
122.00403941356643,-192.10143141696855,3.4499127975593744
19.94140276480772,-123.00639450233624,8.964077356658503
-17.12720196915938,-25.165219335059646,7.520361008674997
14.674368459903938,-44.28840142630743,4.672172327838997
33.83353508815616,123.41063786985542,6.244494518644715
7.361064027624945,-93.9656443862896,2.8580465323936757
6.934553923404535,-16.60782349780429,2.223772104672647
-230.74729076865376,-4.999483977458119,3.5853370024134557
47.16451778200175,-188.02477377997877,7.039596888486913
-215.52039877932904,-26.70763790820351,9.510420212828045
-5.055613822610773,118.34453741104214,9.12820818618178
9.936196945357002,64.27439177688967,6.944899386263701
-109.23693693456241,23.216574615792172,5.689793134706217
-105.24553548723057,-47.46869804002074,8.471222292281768
101.61383230226693,-50.55966330446546,2.869051089934822
244.61534314277552,-43.47903084095691,1.729499433350623
149.00115669782411,51.78538834778934,4.492156128216662
-105.1329204402563,40.942788440852794,3.032368555875704
-51.45602059447474,-9.843991583876202,6.847681076611652
18.24793486224624,-83.78325523506813,7.968568305128896
