-4.403598905506866,89.23930909286909,0.06986742855461173
21.486931724149777,-148.17069416192697,0.22336838615486065
-8.31541203117472,8.431486307422038,0.08521768881189128
-35.36588851586575,-185.58963080413687,0.14862145600656218
-6.478969467166077,14.650123324378143,0.08934287183655737
-26.428533892461928,-39.15668915971565,0.20142218397724176
2.2574232629666393,22.99415163367905,0.17268515515440405
1.644553464655817,177.47717902598254,0.12553817910393883
10.415944808567303,228.81916221046183,0.21377933455535025
-0.23818484022208877,53.021333317026354,0.2507548781035638
23.845423935719126,75.40022026242788,0.21278953365808134
5.828621422596772,-59.26817391879826,0.18929583497708774
-16.154696702121797,141.18957959099524,0.1865723901809365
12.18213447888039,129.53797041905253,0.14969685769450738
4.1833585765385735,-50.720719170486184,0.20730343970139858
18.904375976559972,237.54703137140166,0.1470959253408767
-3.0042224862250806,-30.817864859273804,0.2713155720043758
-11.179837684851968,-250.5693850394048,0.21357518688747085
-7.96052501739866,218.69204703485846,0.10466753706200417
16.31041955660893,-72.62830900982263,0.13798986043246164
29.275109030591917,-177.421209329621,0.17221361969637938
1.647185613700857,-59.37546864837869,0.20450959371753058
25.507533159878626,-42.069579882892825,0.18951503049572102
20.062311500264308,-292.021824047877,0.08987086343619813
8.951121277964358,-157.97835518021213,0.18592243509386847
-16.2476320467594,-70.59644916868822,0.10831742264247475
8.060705221036057,72.6842986577796,0.17631403182784813
47.49456496645139,-33.97101627032786,0.19618330795183722
-1.3490375408017763,-160.9784596876786,0.261443392161978
56.13992057175403,120.46791493646138,0.22061258695662334
25.3837683176662,111.73008168804617,0.08840882943338764
-9.488882839257474,-220.2300850434328,0.19817561616138907
1.9629279382018234,103.10415973839304,0.20582995841620022
-19.28377099931984,-1.8430960955948064,0.18854186232947226
-10.461800557277272,163.93729268753498,0.1576395152926024
-18.837854202981163,-96.70119988153051,0.21108112458117548
9.658819387298296,-113.33354768565307,0.14332710513094676
50.7942872263374,188.30760164936078,0.17302884073319708
59.37079557996715,-329.5443943151898,0.17634386584311412
-20.439398215248698,-306.0684975638977,0.13646735610415345
-24.499376930060798,-93.36379681181886,0.24157282096425015
5.0507648649956565,-22.88994559705487,0.18165313856530876
-25.30763894318705,177.45760590755387,0.18699001181761807
-16.720960620842597,-254.29472454162348,0.206789114287421
12.822200672736873,-318.6092087717925,0.16983345040307493
-17.715364860063875,126.17238689613825,0.18752764881981526
12.485328752060694,205.93837794845186,0.21862033821846483
15.970290962323721,-244.8169677368652,0.20711118541531912
-8.131574347255276,194.68664192096801,0.2429574655491223
3.077604446415898,-16.24477245149271,0.25617533458455266
-0.36095249689990605,-277.75829729032233,0.18804717646775046
20.79609790703803,151.57701635523065,0.17741045574052225
-9.694931028926817,-191.2517160291458,0.15616988188053996
-5.043126336709994,197.84192450788524,0.29281872815436905
1.2743916691207222,-206.04346894264745,0.19440837195297522
43.59315260883417,-191.01459177151776,0.19437497238869633
15.432243707631475,92.98410595529566,0.19203905283375933
-25.94938936448157,-27.318760092938387,0.1886316880095835
6.282055441445578,-3.4785250517743087,0.20409816635047764
20.6667132377736,-431.72786618357134,0.17673126430045621
-2.034852854400488,47.34761898206461,0.20362851660615996
45.36234620829382,184.23843620236863,0.25777227883400106
5.658080930300267,21.36877997268555,0.22834105285449563
58.264920766609876,-314.8077838153659,0.1269448725776756
30.163586230294257,63.81285502486005,0.28768056320643864
-10.770123164384612,166.10421895286927,0.22257487161514172
-30.190614837752143,-121.83543317954486,0.18006921981748925
-2.7341702712349525,226.8885552273399,0.2210650983598606
-29.455685764742476,-202.08492400828408,0.21318339701948408
20.415711816446816,142.37977866844454,0.27598064330422406
-9.287213042166185,151.46875052004978,0.30603612648701845
-11.870055368723154,237.78791959373774,0.18160903257883976
-36.459204524479865,-50.27381411548496,0.2514921090310608
6.850322719113782,-71.0608675547443,0.266367134226371
-10.111491601411835,295.6858926639987,0.14189502580109883
-45.46226640220763,-115.28626279039172,0.24953569876156995
-21.726713114847275,110.00273273709243,0.24405138189605957
13.884861953023545,42.921397580007316,0.2665480009481877
30.74894410644505,267.68393146970146,0.22431074953016317
9.009397030448644,137.33111793422916,0.20736962072930526
-3.0411692234046503,-221.51231230514904,0.1948774839496205
-8.677927567913414,134.8505784055033,0.26752340331833957
-9.637061492462651,-91.36778840093591,0.27824379457157805
-10.684907035323452,29.76528460152044,0.155802991913483
-16.97263296046805,-85.84779130178597,0.247055974045739
-15.346494038751828,14.355501965520192,0.07119761993794704
-6.031650023046159,-11.327657994155684,0.24977269716855202
16.549954249454032,-88.04910033734473,0.15273392896457744
7.4715702230541945,-431.4528372350222,0.200233999592922
19.148264526047612,-13.270840366090352,0.18512238207003603
-20.874037905187677,-118.65306075854993,0.25000497702277485
-3.0168089528190567,-414.9194239746475,0.21169520561705849
-14.815944595263183,246.58123356188835,0.1915635866747757
13.035974541650505,-71.84263056368685,0.19570636373721018
16.47702904889989,54.03966836603862,0.29800466247920515
16.129376334253877,-65.18536112267553,0.14533127724340472
-11.864773105666796,15.4987277596762,0.2517816286469303
-3.4415677815883248,-58.484924873489575,0.17390264825483198
42.755244546860496,-302.5578742794015,0.21892975111041235
-1.2033601162172072,51.772939584541824,0.19022038518859297
-21.14078939434044,-281.97057324208697,0.15668720376914924
-13.441204305629956,25.404119311058913,0.1720898261272466
1.374029749293747,-143.47807370646987,0.18840995857034143
6.9402995162041305,-59.28435447889731,0.21081940053746487
0.11782585673490367,-53.21469001088192,0.3033996975218543
-22.790484088983334,251.01601576380492,0.20416126627272538
2.950779423601732,-264.61141122307964,0.14192966595902842
8.84010273739039,-97.70382843035222,0.22883599779489686
-8.76353605739659,-19.050080395840467,0.20009992912077063
-20.588261056500293,-81.26496393241348,0.2749251032654665
-8.96240605561756,133.6109640919188,0.18903142844157578
35.85087219483533,55.16515075805526,0.09123956709775943
9.18566159745525,288.3302461655885,0.2872347120092362
-16.856893000282103,-69.16739569979929,0.16190993861775743
-11.919841084124576,173.3751394119772,0.22139403499337956
-3.6065209981099153,142.53761494548678,0.2565245564007942
-16.114751652228612,307.82225192208557,0.21570897515734735
25.656693972911295,168.82732312161946,0.14569224520458712
21.026192301584423,-45.48294809920067,0.18662592527884275
-5.140560450831567,-283.0259539920356,0.16881826638186065
3.8914129046014945,334.0824677043149,0.24303227640163594
-39.39277983500812,247.29640901165854,0.19807978183824654
28.362242441745984,-210.28081371672963,0.26517886336960056
-24.43647519883918,255.24234930827126,0.16046379477915998
27.635685316544432,303.50736106332005,0.1601756924823047
26.253146741228743,-76.78637816742425,0.1563017692508088
-9.533991220201353,218.69923803700416,0.1461345447138988
-8.73415591334189,-33.73640071577099,0.21442214784916774
-4.916410882622474,-63.213356046163895,0.35179751691273464
23.095356724543258,83.08646556916368,0.19655448060188227
-0.8685715780648424,-295.84687601824305,0.26296429713117486
6.562628763498298,197.706038147596,0.25169887818888814
15.697440301333392,41.55862830538796,0.1951781123551226
-7.901693476384394,211.99432252135435,0.13513718994985524
-0.6056024958402253,224.28166058234305,0.1335470059763199
-33.234513422619884,160.2061789916358,0.23954204565114245
-5.673842553168564,-592.9588183506871,0.13788378035558901
-22.2128967587949,99.25939574970103,0.1490877744024599
6.280915953171205,-192.14321646826974,0.14447239925088995
-20.312259757579177,189.73235321656065,0.27061319909292525
2.133579656016142,-143.09575741512356,0.22286330249827718
-13.427569912527662,-249.16792655569418,0.18213967916216897
-4.854858544471708,-12.45382405352153,0.15552928471975852
36.763309907931855,-14.521167035610311,0.1381323560699574
-52.00496244793928,-8.230934996971573,0.21787308429516028
-5.106762545206665,-81.09808813656983,0.2551775296581339
-6.782955486141498,288.1585761150013,0.23081212760930941
7.296872130479279,129.9825731149179,0.21983889659382136
4.334380747147275,-72.60236692591658,0.1223271880882242
5.480614763358153,-188.0618413691676,0.2510848932600575
-12.335473186790033,-6.681922217370953,0.2889166957428667
-16.064703375971444,119.30920488090831,0.14171247013766636
-0.40568496895230227,-203.98838370991808,0.1302456155160483
-15.509728097215786,-92.46511556959274,0.22155023734048285
-15.204182041083193,52.92942129635493,0.2900024303535302
11.100647487274797,337.3702027119475,0.21374411078690828
-10.494270511593832,101.02265661814546,0.1342547899093057
21.007219804828022,-355.37612134958806,0.15360304933190544
7.886488183865316,120.33341951084016,0.20383923571646398
-28.006107999712434,-139.13118035260925,0.21601260950544257
-3.6314469951337607,-17.1282422896294,0.1923041733855696
-6.45061971562046,-546.5257136485785,0.2821478644191766
15.586396325138915,178.96023990787327,0.17689478556614407
10.500416509917624,-457.3326560126312,0.07378381756061736
-21.02771262538807,160.95128556690818,0.28959264642758653
4.348833617743387,252.69032306930822,0.215760329299636
18.770463103967828,138.73143337032076,0.17043213735307566
24.326255679840884,-18.780829703434158,0.22128782403651331
-9.115389802281733,-113.5894981795524,0.2276132724651108
29.941117891582792,137.17441787888032,0.27651348653104624
17.359210113013678,-46.182903590100075,0.14736639495868178
0.7341299384537886,-60.8443723245813,0.20566896366132204
4.805378312337549,-87.19529507843923,0.07984537061790431
-21.578694077052045,333.27214684377117,0.18387921461973378
-5.329907244539659,-244.94375505881,0.18418422032152823
5.325499730830575,-29.775708886211905,0.15660426835520572
9.633069558851762,16.42024399203455,0.15273289958292202
-13.809405598115385,576.0759195142354,0.1482602770400889
5.482811725647592,27.93541512742611,0.23881038440160202
-10.31150623320559,429.0543055683874,0.16249991922853108
3.3001935768503716,-98.94801117268173,0.2329496191989787
-12.42624610295729,618.965022106834,0.1566723165727507
22.68956327409883,-296.96139286203396,0.11990572305474723
-41.70752955087252,345.7329584956557,0.22817386991892102
-17.790417567955817,128.74753080190652,0.21822800225441058
5.121440604915532,79.9218660857797,0.09728306159779039
43.64682605170957,-92.51520320770841,0.16327145840562257
14.404926014111574,590.3789805110766,0.1386529434300822
41.062892635200086,1.8036830293344661,0.1772147729542121
-14.67875603152764,54.644696131130644,0.1355255626514688
-12.593880855778645,305.5905256038103,0.21421465976378723
27.718844598610172,-64.20544226650219,0.23306252129673236
22.049325515798266,-46.38028728516501,0.21353806608837755
-29.521883979949415,366.71274169264933,0.20666284434183343
-40.724774030368636,-271.90076292136234,0.11506028078092963
-15.378280254558405,-252.600157260407,0.2143738367519022
17.099348114762073,214.81722303667476,0.22424322008014624
18.157824668369642,202.2115704652883,0.24242710518240174
-2.051504315912926,-160.450411968246,0.17901458011281696
-8.980887535544214,-81.82266876010637,0.20640925623901046
-9.449248205754833,200.62679724993072,0.15507708047950242
7.671868674898232,180.98690367018668,0.2385307035529777
-9.070957316178651,-270.31683778064155,0.2639984305941296
30.09701225726093,-298.19459643112265,0.19657378783527593
-12.17938345234417,-241.25047386646364,0.22551334139662882
30.56469990856502,-366.9569947285568,0.21071600247113398
1.2979682122844216,-208.4548734602889,0.2187466754561873
0.6496742084228522,-7.7336467907495,0.21539151016200073
-5.783318862739214,-344.6468693121959,0.2432271014044125
-21.922379595871917,-122.91145683744458,0.21153903558205525
-34.48403036310657,-114.59204071116187,0.1618919839026222
29.650228639481355,74.03440357411,0.228546095878166
-1.167993128269932,-284.76474958287923,0.27664211344547696
-17.270588263778773,-123.39392345224691,0.21602337091993606
-0.7851471289904767,-66.4979334179434,0.19683492130699576
-4.558972402810712,296.2673827600836,0.2837876720744895
13.869826446950459,62.08512909515722,0.22339570042941065
9.304921771409658,73.67730604755798,0.24058798153224115
14.987667026317748,260.0457333974088,0.19426859542477595
29.51607387585525,-171.92875342610895,0.08037132583337991
17.27484784309879,54.66238012779011,0.22025685242861076
16.8461948112821,53.65331495748684,0.1822910449626527
-4.966312161666648,-429.98903773422194,0.26249309043556107
-44.50160296633893,191.9833696253871,0.1547183569828961
25.00564056530802,-49.872373571257675,0.18868417569386317
13.840487479362391,16.679056650207798,0.21435092267169792
-16.192392673570822,146.57716640700403,0.2608778774974504
-12.597473608020895,366.83514662054006,0.21895386717137677
-16.873878351753447,3.9080468900336287,0.337518757310023
49.02454416295438,170.94786015341853,0.17014899414567664
-32.26520018858069,79.54089327018087,0.23356208693398284
-36.57372878540974,79.70516213030909,0.24898919708702485
13.446135885328383,-117.71044726172302,0.11417914457268445
2.1472469900639086,310.91005271172537,0.2517213212619368
19.10956976869179,259.63915958321314,0.08432002577987954
-8.177656551042457,-371.42289490971086,0.217947129567872
9.084477480027509,-217.5132377057381,0.13418789619028443
0.9785800177784876,98.61877641605011,0.1520566138530955
-31.47411652865675,-337.12604599303137,0.25097302379595055
26.80877391680824,103.09587350856539,0.21845835798633523
-25.539226115903485,306.4766405817957,0.2138646309143059
-42.71100088709764,-163.69662315823172,0.22368698192233838
23.887026205042794,174.38187018194466,0.1828464311163931
10.615399893933217,-100.39948031675642,0.2430953345372924
-36.81286885348766,92.4714780144381,0.157037791636088
4.0415190812477135,175.90156788995364,0.20233781059691083
-11.056031378417812,2.925189162802012,0.24122597011826757
5.839429633824223,-123.5569787190064,0.2471146336584509
-6.414871424178681,53.81183671207902,0.24961886219725735
-4.0688257070498715,5.149791544194736,0.08770023816316959
-32.09555081684658,209.41225489223473,0.17236304535864994
-2.831620243107895,-5.49070154659753,0.19574242607579345
-28.35355838699019,383.50259658693744,0.25737318595180625
2.215426835296144,160.9050328878329,0.13146603354510233
21.707861638031037,-85.64563336307785,0.15449721416182927
5.151692497531503,-314.08154596262887,0.1311450095261299
7.949152143523294,-191.7406186056808,0.2573629761832046
24.3871566991626,-125.58153805421001,0.15434624680309295
-43.700689902631524,-68.47252415646741,0.06189349856630827
-17.33398964745891,-113.34366220392928,0.23359616495303098
19.795436436399797,-203.1401947836717,0.1161758256090459
41.86254468429084,390.35673942941156,0.17576358532262495
-11.095921170289591,11.691041435036595,0.2502940608056762
2.5190963829346016,82.9525403761208,0.16552537810253312
-1.5688997209418014,-64.34948021878824,0.1556693576267765
28.451028581599292,-113.72845501261459,0.17540404610171345
14.172436054625814,-189.91078246734983,0.22964468006852215
-26.61024619237896,33.8480253949627,0.24634972676767278
6.589142950180186,54.89144591075075,0.24932087480523818
1.2453606218587692,335.5033322832929,0.22192608305560738
-35.13385431986705,-70.50914696474305,0.27124802318918445
10.842635079465602,43.432893459500335,0.1651768522394541
16.859856555351183,-177.07299607815435,0.23286571626266017
30.572361984588774,-10.157576798101285,0.16347085675581102
2.512987810372083,379.1073463323091,0.22096230107015064
23.12031138087532,111.08423668163137,0.25970837840307376
19.32727355373997,-60.74061381246456,0.21373818193780836
-11.727627814135742,183.59281654431632,0.18067623661054913
-22.338568634173285,-127.92675395816477,0.14049357338604748
-44.94487249327173,128.41489910787632,0.25650140630944
19.82199647752497,-13.596281106481506,0.2451677593446583
4.3917156941062965,-177.94127525023785,0.24177061430596386
-18.2929921206062,13.01935859653531,0.17113219484328182
-0.5697124335712557,49.98530071122627,0.26114314651384146
7.6561947406114985,-91.9659510481004,0.12370093914875775
-3.730295014097303,-42.36418493716476,0.1168196738227984
-10.486562239678436,169.1445335335346,0.20251458643537207
19.182870029425395,273.3796970172937,0.1629139501414574
-0.23538304961803952,532.4805426435656,0.12850863968432208
9.072578861460833,-606.9417384128977,0.25244247022564226
-14.431442984690754,71.99310539831104,0.27771099928926746
-35.57812531569647,-79.7808416642353,0.24617299434491374
-11.009840615990543,465.680216535098,0.05171354178755802
-13.770164232372881,190.70287023078458,0.12999586331724777
3.2760982101482385,-5.283897790975678,0.20715868601228726
0.8377775780661673,-256.19088149994707,0.2505840465869777
19.200603635851465,123.32992117484012,0.12483150953531744
-34.62796147321866,56.03182048828549,0.2191122486844362
-8.130975785724509,39.55463358135905,0.21934755016151763
6.1147563410280625,334.4128742881037,0.22029810608795342
-25.07465128398424,236.18272196563038,0.15983209731023224
-1.7859198278583754,277.5751216666552,0.12850246308265126
3.7452301142224664,-76.07602183123015,0.10899128929766935
-18.19449585441092,4.766737838472999,0.16034208563031466
-28.777031652119774,56.03814909789588,0.15989778917184302
16.982986563794906,373.3654375180595,0.24957105913059868
15.838745791282562,-142.1573712674948,0.23520802793896445
27.38728217794717,-191.33246266554536,0.24762601040615395
13.626381089481205,270.1386336580304,0.26127333823090526
13.295932299194167,-218.55398552894033,0.22615838951681783
11.318846810395621,311.7535400455515,0.27563334526194944
-6.564632395426248,299.00762458148586,0.2214259240018402
-34.85261632062786,-240.64510638228742,0.2012414099333309
-9.055885695971648,-79.88740177657691,0.18813279763457774
-8.478872768281658,-35.30535000154927,0.2573917939497633
5.631682142068467,-32.07079190892165,0.2364219926118722
47.179635414395406,-297.74214360265165,0.1822577430618656
-2.2873724350032503,174.9651456141494,0.15673167233730712
4.499682435675249,-83.28630599385708,0.17569950204034043
-18.955533258724575,109.24140067554717,0.1496925829593722
30.13073754813241,130.4442529684178,0.38368789324482566
-15.922663898749166,-9.658914651833209,0.15238046824675205
-2.960968778908131,-278.72554143516703,0.1472514981092073
14.508970026187423,145.86000602922178,0.1874306259697821
-10.1106728396848,-218.5762125203744,0.1184252301435517
-13.688127966018701,336.4407664559114,0.2807557580905913
8.589929301537946,-158.99921039935984,0.21914721924619146
-11.084595234162842,-70.59901054579078,0.19428403753624232
9.133343004044827,159.13821848325,0.2167146054733031
24.767733342688018,-198.09339052966007,0.11630055378615173
-17.329892787453506,118.03770281292745,0.23102061963568615
9.71216602024269,-18.4711148973899,0.18966980882117748
-20.680268676431695,3.434503819713318,0.17043788969319493
1.2179843041844032,-201.790723764229,0.2645809474077426
-34.92361141627941,-229.9187645290138,0.23664814838074885
-7.534051938129029,-290.37841225983385,0.2504700840632901
4.973117000712135,-24.38584255473908,0.23332400877436438
15.70827362380838,120.84575542625461,0.14948380827548077
22.432537001817128,137.66674196017576,0.21092943542236012
-21.625631714970346,-108.63760276097692,0.20565635164199758
-8.863399622735631,-171.3740477037323,0.2709197346945393
77.76481539914259,-103.82788898895166,0.1617900241742577
2.49858629955596,-354.8243373748992,0.17214423338429627
20.303832621567125,40.81631442321005,0.06645954470495924
19.79418937845507,-79.40706376226319,0.23591698464905225
14.12229023870761,33.75676181923393,0.2255514400330237
-1.7336770990851849,-19.661660178781275,0.22543582688969135
-9.026571760051183,132.7806990629117,0.21410452799399948
11.834352011297632,76.86081699802266,0.24044170691304886
24.262963452418695,-30.056190431568503,0.1853476586014577
-8.902382878340413,-252.4721649442151,0.2029907105274531
29.679544420222822,74.76497127708858,0.2237636145027903
18.808650372259347,-455.2144861002074,0.06406380062333636
14.924987930160356,287.07339105219853,0.13190797741308408
-9.121723985882731,30.0969929881947,0.16540814006339732
-39.74581930936773,531.1225591739333,0.21311609260027506
-30.833420480782365,23.694123821514022,0.19411831122110898
46.55313246929866,-252.7911706184257,0.1709007848427927
0.15345683089238316,-61.301012382873424,0.10073950894697253
40.0833353220102,90.48341365678698,0.2853260604089406
-2.567154755458665,-157.78398792502946,0.24433908576323643
-5.952367159602305,-333.7260615228766,0.19704833244433084
9.376210876966518,276.0585968495413,0.22174609022915204
-12.435504753957696,261.72142757347365,0.15373562318713102
32.07888256973712,64.22668720081914,0.12604929314166224
-16.033460464528012,53.67608670227166,0.16955316522662
-17.610238729615276,-168.34414262574086,0.35133423471697056
-8.146626653269458,-134.0770323852628,0.2280059420419406
10.910586750841475,-542.4995202719801,0.18913149136202012
-16.29881445560984,-280.5615987565789,0.23422158460129702
-5.3512152276767395,-4.114981188537822,0.2253784333314155
-20.523296463892805,-17.905014176334245,0.312094819845887
44.220249956613955,350.34611914422,0.1862688150817291
-5.455558838324997,-5.525102686146419,0.20286449190879133
-2.9943160188921225,115.59573562452354,0.13160429934213086
12.102190625123733,-58.3344164725911,0.18369113692485287
-1.1454148246550935,-73.8845394507504,0.20168522950486276
0.2701231238148516,-130.00231718349337,0.1517314994849173
-18.637459426055123,-75.48858011396466,0.1801572310707087
-4.166785911696341,74.49033080468118,0.12563943903548652
7.180394561103078,-175.31902852010103,0.15361074795260882
11.789807631241157,344.31815891161153,0.18150531872065134
17.299934432160864,-140.66799280600725,0.22663975549368745
9.258114394716511,-107.2947355776274,0.14890460758569551
45.22436439853277,-22.545013601095544,0.13224142828367638
-18.98195599352595,-29.582043045623525,0.21477901712562397
-26.219824801828985,124.97638306973617,0.278793758368587
33.043999338187035,150.13302901414892,0.23864300605651795
-2.361732900879261,24.08682877929328,0.21859455508358047
0.10484355233501444,-714.6835675962947,0.20259915307267345
-9.855497167109174,-221.2229323070126,0.24278487226100742
-29.351098554004782,35.81596387391981,0.09840360410182213
-19.816056709132877,-261.0507641327958,0.17469019504126593
19.24754905613245,36.976119053292024,0.19792159838064466
0.6117234236159906,-121.04885834820284,0.13564019775894587
-12.52843897951783,192.76127346349233,0.12547095591413837
3.9736868163203964,-12.771046156979121,0.20333281829151295
25.96162807620686,33.997071955505284,0.13478907059537254
6.734120903322359,-62.81052058309648,0.19251664248656247
32.29537412128825,352.6608682059241,0.23900422108677497
30.198524196720037,387.1727039992256,0.20418003962218137
-18.10695503532757,17.623353943370702,0.2176354737501144
-6.771229092676837,-118.74497006313365,0.13112029140552406
-37.765307908362274,179.14262051353913,0.15803668855065928
-5.992957811848687,101.5871610218696,0.27209625315013075
11.324754475350074,200.31371884469326,0.2688757669973464
30.63568169106262,214.65337424533914,0.15140569383776653
-1.6018870957511164,-177.07689135685413,0.0881924611451888
7.197376121367581,18.048255242922256,0.2191797722290795
-34.402655794866384,3.0261654386633934,0.18251299843243438
3.8137542618786666,-83.53589822481126,0.22456473203011804
-9.31656885308945,29.37390023557856,0.17399282743342095
18.35387371253091,105.29947434356029,0.1446558215327709
44.93574693215194,65.13990301529955,0.17560845178425863
24.685265464362153,15.787700678949756,0.21025183274963982
0.5534201597807327,35.16157924844969,0.26876983990041287
-42.391650096669046,51.256191474337584,0.22137985439393426
37.55517395263743,-72.07707587955476,0.18946459527543227
43.94771712261725,66.14393073066785,0.18858401895407637
41.73641359903013,-144.25739223755727,0.25652830017741723
-0.9504045602423916,-246.51458619513963,0.1471775030040106
-34.29850657242337,320.8157579165765,0.2537675589962841
10.403785113331274,-104.95591380984935,0.29412990014950435
27.436186611503295,53.51171491839379,0.24987676111925672
6.76720956899429,-278.24155804598263,0.1412908039951977
43.40394092912977,-14.776840247577425,0.3119861289687056
3.0512245373301767,59.544501195425816,0.17799805932183188
-1.1180020932753074,-6.930020190982471,0.16858460682554757
-15.575168224743255,-54.057016809558874,0.26440297962831827
3.25568535191049,74.4624580116718,0.15162412928385322
-3.232677620486683,-151.78398396532305,0.17179654612216627
-0.6415234229682918,-68.81397148853004,0.15079878138132005
-4.5879728367026305,138.59357792060663,0.1424975430156483
6.3779152740783775,610.6357720245808,0.2002197897609554
30.933528123420015,-15.248799075274563,0.202892111148108
-1.503681698575328,253.56475258822582,0.1650673923808006
-3.392353737057059,-347.82132544037063,0.26219598257045007
-8.613572197791665,-31.21875534623186,0.30068229324808093
13.773742319952964,-109.54201723656168,0.2140148159789516
23.19301428733686,228.23006109117068,0.16756736388792867
-7.878969849911557,-12.378986202630134,0.08368099106676292
3.816520828779918,79.08569373282732,0.166135378200087
8.21189693919149,-326.6483524828471,0.10584314995041008
16.5726566319844,229.62764653552782,0.22141163679763384
-15.161833662103316,-132.6792113807251,0.21320000430201552
7.42752000611,74.69907555711126,0.28820298157910323
7.725136249402716,-39.55052194486225,0.2480434626632818
-4.5946997609649065,-120.17604462465954,0.20589676007024854
-4.425059925306752,-42.0850342978346,0.2410501128929396
-26.510815527568383,110.93042241016539,0.2223429161255298
7.748337806342641,106.51475746090253,0.21572066691960312
-13.342100788866727,-125.14421525100855,0.1306975652564142
17.416244987814363,98.86557830375412,0.15507918927362693
7.608074092882191,-28.615816288340508,0.17563758242300959
16.940441666724876,-126.49172802366525,0.23266061611380112
-25.74792478862213,-194.9548342582811,0.20634080257950033
14.241604382470205,-411.00431746712775,0.21423673991415274
1.0885595071829801,248.07981091296244,0.20405921811626374
-9.884265301078749,-195.15915847794153,0.12069672978567164
-16.510386763764007,86.58871150598678,0.15305099835002373
-0.08243032838785261,49.32717676196698,0.16506225776299827
5.278560671905147,37.83443228513317,0.18162145557279474
13.664049476199072,-27.0182502012783,0.18391467799254396
26.613036223403594,156.61982967833865,0.2733710034714323
-8.095685052273513,-228.36273605284924,0.22802068139328927
-3.616160578355745,-2.9052134560835685,0.15932108226166525
-14.109521402834439,373.74025652325247,0.15409278867998588
-52.13556121397495,-214.75784284950316,0.190152390384923
6.448868753944749,-202.13329964621224,0.14934917759578417
-0.8009550705395174,350.4173415131157,0.3282432865671998
-15.246998706601412,-2.232614030245559,0.15208770983882033
11.024471765902062,-277.1635468449813,0.23385405935187614
-17.629613384568536,76.61771483732294,0.2089846427349756
-1.5399579356794477,422.8887278498345,0.20579414252032194
-16.48815468851112,19.683049422468237,0.1987992279530179
11.450301428917085,-114.37192191536228,0.15260383368202973
-20.437594256718555,21.020239432288392,0.12468152319201614
13.765104273903834,435.06396911652223,0.12123814970557388
-3.0165838098451885,201.65129213956158,0.12800288175366203
-18.836423047658574,19.06716102611759,0.1877832728791327
21.105565033410056,380.3610972624407,0.19314979118717743
-1.017289948293099,353.11153222662807,0.2028095736334983
-30.21138052954269,109.77705563724471,0.12225092191590818
18.30888366219105,401.7553608410174,0.24390904430336116
-13.321944400045025,162.77137693616916,0.19133862819794098
15.140516925695787,88.80592713428872,0.2146246079534952
8.677235970180522,81.51593488832954,0.23071959641766862
40.75353336491987,168.15430564501628,0.13322704260693635
-26.801786312769966,133.69873909132386,0.2846682533606664
-7.888727263347402,-85.74027067956006,0.2348130253368011
5.022093900801087,-204.9070951328055,0.14881636862271846
-11.975135145324067,217.6412232149183,0.18060622933795706
32.79821165313299,-19.746361053334976,0.18192298298401108
6.579240719540608,62.50885857238813,0.14586354572418922
7.42780293211041,-135.14455662928654,0.15410848148378656
6.127232230262703,-76.33509752198681,0.2000757435853204
-23.824160244632377,-334.04187148068314,0.11975793205202076
4.430712359576435,-153.88805034366203,0.16830705853443836
-6.26532255389731,-138.43125891907334,0.2012591342638339
-28.072168016663408,7.269487572762231,0.18241889884828488
21.988822335370173,42.206722892368006,0.20833090601946422
-51.32274747193147,-94.09950483140113,0.2519101827510439
-25.175569915111375,163.04172506815613,0.23994244386896302
38.150842042721656,76.30741773017544,0.255286280060859
4.288907943512231,-363.16046939343784,0.15352639681460212
9.94306997045432,-239.99634773376152,0.20013440276099898
-13.703238595947248,-110.5531322696812,0.13559735756302002
-24.491123975446918,-121.7591207883108,0.21095029069998994
21.09543220346208,328.1781174216005,0.20573630922680605
18.80249421084494,-346.8061313531343,0.17998296957806978
5.8217265704803625,61.53471973789969,0.15368897349189986
2.486137595634797,-71.43946380896551,0.20213551397784246
-12.963400189575085,-112.5554513611415,0.2289286879248363
18.999681386421134,89.27239901987663,0.1535803929702732
-18.139621397441093,-0.6748562646677118,0.2852226186883823
-14.679990514587518,36.043858365486535,0.21947019718817484
19.62240535852581,146.4439444121625,0.2771508222547422
-28.158016001233577,24.973778196904718,0.1890955093432607
-6.0547274387731544,-35.16411855517378,0.2526518978536777
-21.27066929187649,299.7693430906869,0.21067244951996245
19.39296099509378,30.899713332788377,0.27302342889068903
7.206458324813193,214.94424701200043,0.1832832657149462
-37.05942338646487,-165.91838375105777,0.22330721608662246
-20.287954220168004,328.32563273681166,0.18165285354749655
11.473542429388994,217.7183935441735,0.1972825133158651
22.49157819836979,181.3638728569389,0.1447394658834461
16.824329088238095,-142.89426626152365,0.3106764679064397
-1.0531337559614793,-30.017545065957226,0.2843346686549796
3.112661020795634,172.3226459716935,0.13820264695183873
-12.568934843354384,296.4734060576985,0.17839400992148893
4.661148465556798,173.57086525807847,0.15176806092393924
7.287336544464818,-80.07549374423681,0.16885540092649548
42.91405340573051,-59.985750915158285,0.2499926312213379
29.559008164296742,312.3322902527927,0.21577034153168828
-45.18507505231432,-144.46340459892605,0.15387377813905795
24.973168877914066,-178.75455742126985,0.10530867061910515
6.323145862912474,21.583763146706573,0.18673786612897544
-9.27936493318279,-79.82698717298192,0.2647078083574354
-8.568222083088205,168.97763216292935,0.13775933509378896
3.462558657656931,55.908183266284304,0.150202821832205
11.92314102713873,-188.6932702576138,0.21254224499873836
-26.194876170732538,-73.64494222931359,0.22556153982235186
-14.80867110109142,-208.32262139519963,0.16272577841131497
11.726230619844502,251.2661039557726,0.22475607807370138
25.4142491065449,-271.2117266521702,0.21686306122372578
3.6550143353193016,-152.00242401184084,0.1958651294081147
15.942671453272027,-174.57780654996964,0.231594166351508
11.479371501807387,199.73642677756354,0.17639682391930478
-1.0758324492401743,102.12409457323339,0.23040215534183645
-3.9734368505892355,-110.37164506231807,0.28937585806844973
5.257573760765004,281.2595070732608,0.20275294135733363
-8.083909934781111,102.464622171318,0.17117460153703778
30.467248367922867,-91.32056438787387,0.20807539308307033
8.376251401839822,-135.54795083701322,0.19330482015950837
2.596330850465897,517.7645192728144,0.29335666816432293
-0.4328196673344764,-58.51215599780324,0.20101335826538994
-16.35845161938804,82.05315697206186,0.14777647272940575
25.056648384506737,-16.988775000244004,0.18879551075105505
11.546879366478272,182.24479475525385,0.22800437890708775
-14.855942301827438,-73.83625139502853,0.164053498090404
11.085434636131758,120.77236828059608,0.17525125484995396
-26.59367277839558,143.2198416743392,0.13077887784268705
6.911409546710293,76.26006098978564,0.13221286651622932
-27.87293429646816,78.9318161987345,0.2562166332713687
1.221219402360759,-220.7150011876977,0.15246446339586373
16.02476380132523,-182.04486779171546,0.21913111161890272
32.06390364666432,-201.4079229880251,0.1424462606634421
-26.538221895017678,265.8896417814974,0.2325095599145155
30.59033763274001,-585.0374876912158,0.20168567620368963
-24.645897550334126,59.38927785294395,0.14344102884681792
5.839396625517876,-83.63971241955326,0.1926550519782017
-20.646156051518844,32.10869662856384,0.24375538381315628
-8.874832622871903,119.50306042599144,0.22332982537601118
26.145366607829644,-22.728513856048846,0.12398202206100753
-10.505373571672859,-149.65448779423767,0.23464782111126445
9.065306694659022,194.44707913593146,0.25778089351703426
5.764327363712978,119.92639511503691,0.20473028318851966
-16.008303878730292,88.48160941754715,0.19525885698277867
-0.31264155166134644,6.248005589810314,0.2096539085394125
-22.419317528223097,292.491928048913,0.16915752395012576
8.062134840152241,-229.74309628145147,0.1389019665529383
16.935353045092164,3.6872635570256476,0.285454086195073
12.951031123374282,106.27538722436374,0.1598434104529686
14.900414843255588,23.327098082368952,0.21105044566747885
-41.699955079895936,27.567879695231156,0.24838838353842657
-3.317159359516645,172.2742418978342,0.1834991371625562
9.190895897463935,-253.14411809529264,0.11177272162427432
26.46625149408893,163.3611029387244,0.14605913820473726
13.030001560310048,-105.3819037479234,0.1941508632288155
-3.1010905332690353,189.36543628883663,0.2951922976502569
-8.212652552017087,-250.16727920278515,0.14484738049326196
-18.775234511008325,196.00457570791156,0.19419825540795194
14.133150143617803,-168.4648201443822,0.17696212931229655
4.633189132767808,97.20464483358575,0.13125158120526498
-3.8848733686276846,-111.95272611142562,0.1868015381115483
-48.35744298561576,27.33300306546816,0.24901929565692854
21.547133382803267,-161.42572882055416,0.1413836828951262
-6.219879902621502,16.646568205925018,0.17571642260374604
12.67110765360518,-35.25671551752144,0.28288203112075383
18.433283371086333,-54.644053142911,0.20148884194669686
22.160729414298743,-92.81580672250892,0.2433743030322517
33.01353323952178,68.27089896658339,0.18985210978264094
6.866978712308188,12.18208527765736,0.1669434236938344
-8.53277375894258,78.10150558931514,0.2135965195653267
-13.93620006572872,246.09592107727855,0.20909169399886135
-2.0626901237936477,-177.3477988660236,0.26172785287179595
0.250758283219458,-90.30178526300216,0.22462193972778505
0.7370082095703229,590.7185128284189,0.20595011325960005
17.395069751055125,167.5906463811814,0.27001020330267606
12.540550648192934,-254.74757409139025,0.19685981519954793
17.718232083029047,-223.60495457431452,0.12279194834342932
-14.666407934800645,-358.00425961208475,0.3103379321722256
26.73448944794494,-326.76955939099184,0.18786321781865586
-18.82012338470063,174.19825504319482,0.19588750013734763
35.74724221447174,343.10309604215837,0.10682188855229169
-4.197682097331142,-488.1904681842072,0.15253487733664792
-13.444091128459421,107.2966205383972,0.24847434104206662
-16.138675982004706,158.46053692069316,0.17009577130818634
2.5868956708391395,-201.7723195801424,0.24977754266934296
-2.9017476855168622,-31.2407658119483,0.24335348995297437
5.134894314132711,39.0290433082952,0.2217660784565093
-19.136634546687773,76.79915599512992,0.21723162287209474
-5.9346094532606966,227.56169903451305,0.1330587260892238
43.728607814176414,141.28348424335655,0.23130565320713517
8.65848573139394,187.97297071451356,0.15859224757154808
25.239237743287784,336.99826093603417,0.1236190757275617
-12.166206545337584,41.48149469847331,0.15870062348615802
-3.0712207718119666,200.62292213691094,0.1961606474559226
-7.596406711769269,-58.87015391495184,0.18275172263991427
14.288799452851329,-394.1594226787147,0.2092421388436668
-50.608806495096474,-115.79529872093705,0.2568902637636657
39.83429221104053,-205.35926639943196,0.21849468305415462
34.59775387819561,-136.64156709052818,0.17013876531062322
33.071832843891826,-20.810036625840905,0.16650161643208428
-31.41073361600484,102.93000511347736,0.26484836127172146
-4.6755001697877,-141.6115835007381,0.16027682012167765
-9.370322691459059,175.54184023309674,0.10688299373789509
-10.771157494320258,-252.5778774596152,0.19960746475149133
29.10554941584293,-26.377714904175388,0.31211817632605754
8.48486679095889,297.77876743669134,0.19057704356572167
0.7357656143746122,159.18532145108762,0.26789311960567797
12.221209289004843,416.3871702010363,0.24050140692759017
-15.682964261148824,299.3364335880314,0.1742023799902134
17.567443871906928,91.35243504196713,0.19803891908691912
-13.322730120605026,226.32127343266794,0.16579973508041423
-24.97014267641326,43.251123367043,0.26429865050973506
9.50504816613717,28.41683300381046,0.12106567291789982
9.059453140672865,147.27038652930221,0.17753554778091887
-12.512194100669351,31.77010850483959,0.22880242355479682
-8.275659878299427,419.67635399638857,0.23019559105974993
27.764647743120776,-12.92282312702093,0.1949154971452068
16.567023653318756,13.930107170582124,0.2435417872314788
-2.4606936446606693,-182.1940048959603,0.22321416504461372
-12.921565181814831,9.24907901337674,0.2468628589745852
13.703740023970436,222.5040974091809,0.2306403997061847
-19.322030851098447,-99.87801512757866,0.2267933288631159
1.131108901809536,-470.36772647655727,0.1662537587534303
1.8181447425445831,65.52594901921086,0.19438585824870241
-17.31333152014349,11.89627096518311,0.21310245969624284
-7.6136778928222935,-210.98595601651323,0.13123889940155464
0.9736684769892091,23.617173891896208,0.23604217260552493
7.470082097664731,-250.76082816268004,0.295095735296225
-4.08599821474153,172.23009730875526,0.09943861540461188
-1.20252600878538,278.97800199563216,0.21373707085623267
19.69537068878356,-519.4516832314794,0.19558105098073758
16.46959221758055,-77.51559154487015,0.24713511463162718
10.532760357432338,422.48724249755736,0.12751008064198582
-0.5560668616305376,212.80312589155162,0.31080236850661835
49.1516597786422,-114.132954127257,0.08125313298286962
6.4847483958672445,76.14433882564242,0.2686318922731575
2.918100303113223,-34.17456484638261,0.2825152771877141
-15.755549818663173,-281.5974936005239,0.17475608122321798
43.1095017651075,237.77951705021448,0.15175156182798388
-15.941739484301618,-61.26056177079917,0.15953132925809652
-10.599895382180463,-78.31889483575031,0.18615781119732777
-8.508704823582626,-127.57146584834011,0.22799169881290796
-18.144436643166127,109.60103415898776,0.1531565270882822
-33.200423062861596,-183.9832451278404,0.1970972744503045
14.726612683305847,-116.90081508639973,0.15154317182953073
-32.227453944185264,106.6636609767112,0.2028225580502419
9.751355061784444,-300.16507555098485,0.2431747852964037
-7.593762556991618,-267.7063657963608,0.2482100316783709
2.1932361985537794,-3.2734152841943995,0.16190467909687814
13.915091714001393,-76.77940252942022,0.18203609360923748
-2.1329872675355954,228.61168869959673,0.2586837346842882
7.574697953038832,108.45087211149895,0.1748451646807908
-38.10463220228358,223.37568110884948,0.2622935753863563
0.6947186658891492,-17.378845762278907,0.2815011579071332
-3.5190287109689455,193.92358868219134,0.1302696630281709
10.244105866893207,69.2483158965986,0.16838404517263286
1.3441984678898746,-188.75937756583536,0.16558173905574064
12.506205166565188,-212.4160177024105,0.2801570626009193
-29.162405128002323,-143.018460518998,0.1657537616217916
-12.68184700532945,246.46960606704553,0.24655129875058746
34.46217867181449,-8.1148359870799,0.19086745774432406
-2.8320637220935807,-239.38408885257155,0.19562599429155164
-4.0329855463675965,-298.32388435850856,0.20602994428544213
29.292786272598676,-23.359130653065534,0.18076895223911596
-6.581092738380803,206.46475888385,0.20388905979713767
13.189966839690662,328.6830536677208,0.18655136514575577
16.42309409450688,71.9775435862877,0.23218056331394896
-42.675897213635324,-223.86729822399602,0.1514429494324625
12.18824710551582,-161.45784132371804,0.18642155787845494
-22.844692942027628,-2.982173040760593,0.1788419041525361
7.421633980277309,326.4348654376939,0.2521528295261437
-10.42263081519819,223.47001016379596,0.21889676802277203
-25.8338113819962,233.2021224984377,0.16049946643519694
22.086519456188803,268.7734229534859,0.24802070869717555
22.110913903519997,38.326054251679714,0.26038485781633347
25.01736426079475,-149.9979695769452,0.09289556842787594
7.2952234207496645,42.58203846733019,0.07595685727090705
1.496899249491678,-111.65330475706068,0.24643134832413366
15.664922858978926,51.996292841858505,0.14113549178442336
7.297631300836324,131.81598879025663,0.237673338482582
-21.541469268606214,-25.081880850884474,0.23574386318280807
-23.710033811250035,57.535160856407806,0.23534030559960184
22.027463523075347,71.92677097255911,0.2066770638362899
7.8396174354627135,-56.077023897783754,0.25695484491401943
-11.230064707545376,-134.93354845317265,0.23519369550201302
-37.10727026217305,130.47534364628325,0.09519540241971546
-14.253941100551266,150.59932947887447,0.2527131334547903
1.29853744619925,264.55140061689,0.14795935825297432
-27.75772059720872,-33.591129586203046,0.2457648932738979
28.617584169361766,-14.956593262135732,0.1652971719500604
-9.481465163016232,73.94433140603869,0.1889892554459692
-8.154612557211626,390.3548361768008,0.2314024023807043
-1.2890270966205715,-52.706652792305206,0.14517195508787153
-0.9052351302329795,488.7387755212451,0.21890695568773447
5.325346401723673,-180.50567248833548,0.2899026060668823
-11.60393911285776,202.67178513267478,0.24683999969211037
-9.942392081942423,-188.74031864330053,0.2221133255302095
0.8569544247930052,-111.69468868016372,0.18132448598672432
8.17405761030122,-239.0058827092566,0.18163757450616205
10.415683656768637,-496.2507109367067,0.26231430151883534
-5.272762517066768,118.16768909718103,0.22911124081403914
-2.0878796031827105,-37.197317330672675,0.2992702216347955
10.8945780498619,446.5386080918571,0.10219484492450884
-11.31912905733184,-16.972013212177067,0.16648051759213053
13.88601432891351,-122.25679700195238,0.12423137488558737
22.366780111961436,232.00510878602518,0.09644112460295051
6.367023491303447,-56.78741848057766,0.23224565377546424
-35.36154568231367,533.7906943173207,0.22716273112800095
-13.709437046056333,-89.31188841520384,0.26237114486370167
-3.9762713661319715,-88.0406846153535,0.170098930269569
13.016077088475644,256.6756560480453,0.11834501663823073
8.748173951336117,158.7414142841169,0.2137720911742907
-19.213012314312156,73.3198552415663,0.16712374188270537
-11.562468450683753,237.61242769185662,0.14169717288408817
-20.760492614482345,-219.2460330294126,0.25966636571975293
18.76450854667274,-300.4408171525394,0.2394143328774319
-0.9032085121965863,97.04264237236485,0.24454171041782746
30.87555262125814,381.22303477491135,0.2947524310305575
15.239240620782205,74.30679866975261,0.2823885910417058
9.635185010445648,-179.89600416128587,0.24268965971246723
32.2082689780655,-210.53646569734093,0.2618843746489305
1.4763817434226483,90.22703128435242,0.19234906459794962
9.061777979696178,73.55528283013865,0.21579995113704326
-20.54196988966193,-46.116732108194775,0.23685022411839515
21.95082365730797,202.24623200319215,0.27601426859174183
-29.221625297452725,-394.2610828130818,0.22365533388729186
-9.662400354355963,-411.25056507982254,0.1765085239951798
-28.63956956658452,3.9216490506644877,0.138783245614091
-40.59925872369512,-26.833339780788517,0.20925613665111284
-13.618719367567385,22.45419027054918,0.13116431904828635
-0.6476211594585563,23.638995576413002,0.10581679647755583
32.01538973758308,-6.4947764171608355,0.20636784179644088
-24.04406537905656,-16.011612261651003,0.26047094605760795
62.47909968322564,102.21482094855851,0.2078753835342857
-4.336165448576084,49.45104377455644,0.1662054502551682
-20.778680562939744,-193.98000934714366,0.1940940753930568
16.058639799368766,290.311578083649,0.14684645899398313
21.6822066394582,-391.3676480258073,0.20689403753486899
-15.422238761402253,-0.5707843368820362,0.22018486177977273
-7.694631649565861,-339.11927413552905,0.2534050707617644
27.710992817388593,50.22468134873998,0.15476167216978898
-14.253806072555083,518.6085632042599,0.1389433936684699
46.134975900654176,16.091889874773557,0.21535163805932342
-4.116357200725113,-372.95645048835826,0.19936446111133282
-16.96274702258502,-139.0684606449264,0.20909312114402825
-41.809479157404034,277.9696625133734,0.17914841488099711
-3.7376307712483965,-519.9241940994557,0.18721298527988892
-38.919300413549685,127.66782414731126,0.27647013556704175
-1.8319876860325535,-66.17031581529595,0.2682045620723664
-30.06723442078465,-440.58907222662896,0.13361831071549263
1.3560972634388073,-0.13925329659121571,0.21795803856072354
-4.714255344274245,-9.294287030265155,0.19927997215770285
13.217684288773835,-331.6086685641748,0.2333320504750707
28.831958413117967,-46.11500978333441,0.10111012818742984
-9.46801261265422,-24.35090870391764,0.19380920654924697
23.713259037856226,-30.02165401697252,0.22008738825808094
3.039006666033159,-26.958429035762165,0.29543248181086446
-8.5849505860385,-9.9178804710191,0.16036464742231651
-27.07758752163777,377.1265331857736,0.20510377980099928
2.0613614969736633,-220.5466402380186,0.23808652901364524
4.306642307683111,4.538543719466837,0.1699288523278305
21.98456448055516,-204.16664808846812,0.3276849142382099
-10.389455291943975,-74.28395392252357,0.09397441598954376
44.972988461374904,-277.72147897196044,0.2087908097155178
52.939123853301126,-66.25065870680602,0.19207605850683415
-6.165982925030095,-190.99809131425798,0.2787144025351554
19.994816216781828,22.52470318700209,0.11619095497766946
-29.049518223847322,-276.6391969864868,0.18954849496833587
24.064806294310216,240.93557036485845,0.17989329732065293
-20.412703491391092,-59.65451467214136,0.22089477998571827
-26.789477749441467,-269.39183359552146,0.14991641763822688
-28.295981464497086,-485.88833068217934,0.30363851771893935
6.0443110073317206,-119.45848837584892,0.11836664614955848
-7.432091513677264,11.386910958631844,0.27969230580685833
-31.985276478220367,-173.76043958559254,0.11991879520234561
-0.5535157510469348,92.27418827418866,0.1979337322988196
19.070688436415747,279.36194867200703,0.14968032391340316
3.3390859298944275,230.8091519688785,0.23337906201958653
-8.422504136573515,105.44954835512377,0.19462077867097083
23.60904587808992,114.5976328964205,0.14137806573413936
3.951157063157588,-297.43085449139465,0.24156508365517176
21.807535390128166,-263.37128340979746,0.22437526206652258
32.54109709227912,-190.68931058445582,0.24838698229685796
-12.59725029045575,514.4607609698197,0.1876083453339021
-1.7103014177947162,40.233018839086974,0.26882530650317427
-17.225298016961965,296.9532301482141,0.1688245100656488
42.10529797926042,-396.65668471118863,0.18909722011540284
-21.412151377669204,-7.660957581115643,0.20243352828517924
-3.1092459960766554,112.71510035073551,0.18335336287613024
15.134284330831136,207.19286949463455,0.23856970822916818
-7.855111470863754,-42.233965775901716,0.23690257865148648
-16.063858912806744,190.0030213692503,0.20323949496579752
25.200228341665223,17.660034202899507,0.251003735276411
-27.816544959985784,-35.38391857788617,0.2658167083098848
20.85649022135978,28.597812128399102,0.1448073912618374
2.7879942975337215,57.434395720729,0.18833594943137136
14.866765851341931,114.13085710450052,0.23535907070728324
3.0546445496609405,24.006424089372565,0.14279048549673495
2.1251006206063074,66.14418042424387,0.1517857226411425
4.625443198550438,-52.866927203440895,0.1972288785313404
