-168.02874210446518,1.830277615622421,0.4167506320915491
81.24745276684405,5.487672134091217,183.56693172920262
-157.27427528139805,3.6066396032535666,-22.21999185517665
102.7394536819037,1.982808578268228,92.26802351537748
170.07506538703808,9.24723214355726,-33.48985529389949
8.75075256312665,3.6558679994082532,8.03960934729638
196.1621927992614,1.6425538278815055,134.48503514688838
-308.45633435452055,0.3566292144728811,-165.07261415364167
280.6159531338668,6.68842377546572,-109.03266478045323
-77.27511746862565,3.876230621527572,98.34128095008163
24.507041131905126,8.288296935369225,36.55202102520335
-17.735209417187875,3.6589113534518947,-124.47200066719833
53.29911788542449,4.421785781909615,-250.4966091902567
-85.31133427321407,0.565015202628989,192.24623804599702
89.67708065244622,1.3528708248396393,-173.40234487582077
-149.26277937289132,0.2713823898249845,-50.386572984870845
51.62461375440125,9.054278245256487,-97.8457541704663
149.17884759312875,1.453728313489715,134.08708944844852
-0.7809358244403689,4.342687166806705,-23.066855619560254
183.77658853412973,8.261990664011506,27.42951971236196
-129.97363835420916,5.004592404376672,-7.866856813220216
-62.558938396390204,0.7326670024894344,8.47887592719853
31.83270493153239,8.829135757624822,30.640145510936218
-69.98027892105544,4.7895543426619795,104.40672610880706
113.24436806044851,2.1779253081449412,-131.82913511475581
-76.26342305250432,4.312804103735166,-47.86846063581158
128.05227133554394,3.4490111427059142,52.80770213022692
33.92463026460016,6.364885153746406,58.080826958679346
-96.00601113477131,6.519483446684519,21.32872754757602
-10.36303287725351,8.561213756497963,-36.724757761893315
57.0285887890111,2.974142424536094,-145.10892762478903
23.065470964132892,2.2885086238656136,-69.09518680689828
73.71023591725276,5.860120972942411,-121.40668021026555
71.3532744166353,3.229495260673607,131.21024361338917
61.90835893261395,0.5465640277340655,-38.68732355670187
-80.78833673892511,3.3527933037880198,-58.931235453645044
84.37463213264884,5.737417396127108,-47.152586703451185
224.84609552857768,9.795315869114747,-51.74635027303861
-41.199049329805106,2.6129948440495254,40.707522777376234
-41.70197627517604,0.31165399412269035,28.354547903559585
27.194727163668848,2.3118122244136385,-106.31724272811216
-42.67586377426528,5.04119865206169,182.9709787745973
-125.36927950085021,3.120914393409049,99.82320220782843
135.3686511384348,1.8707290749845429,-84.92553946236251
54.58298258389671,1.9568124807974496,-144.58003420080894
-44.72534442769847,2.399862345336614,-100.82272800055263
246.54874295421845,7.109632063829643,32.06198741537602
49.5863528547084,7.1755068386125505,99.78685391480646
33.86563378795098,5.282289678987863,57.28495459309272
4.392081497350459,5.552357780906916,-21.207820569780246
-71.18608938252817,8.698979237210882,24.483670809651375
213.09960827844273,8.103102912585701,66.59636441726921
96.52450232805087,3.2964980364885452,-52.02125012139944
145.611832882244,1.639744532842048,-219.45570790517692
188.07826603452972,1.8184384657937513,17.826074877660854
36.51536846130546,1.314456639068451,-5.579719615705465
36.558367877296035,2.274761861700383,215.94472524803274
-103.13632578502802,6.356817153946979,25.64490540191931
-85.73599118317391,4.064536141805545,14.939373107178675
148.07259750849394,5.178021467246524,6.069422139095196
59.52733471288835,9.107065971853688,50.79757074678616
124.92942760168727,4.9817988078030435,0.16093220356578875
173.65282841534952,5.258429414868639,48.21019752283277
177.66931728230472,5.883257032661965,164.51522530621386
-224.66958971586752,5.7340387101444,50.105415680262
85.24307244959314,6.333821799728618,-145.62352897806247
106.00047740008756,6.297759696637613,-10.052134431655963
18.388405118696134,7.66145604697983,-81.2698217665574
-1.3261676112184544,4.7855235546476,182.66329303722023
118.88353573897747,2.150810138220791,76.12160576164383
-65.51074049156661,8.891333614897523,156.3478526054933
-32.073886609984925,5.705510914556857,-110.23504827696253
38.280484747456484,8.412447104071394,-53.44725809263049
205.82703140812976,8.474458849513496,-56.17700192919567
254.38204429517216,5.154148090914231,68.39635927680706
78.88193719724786,8.214230429095373,105.98535118659163
107.44922903033928,1.6602708478203987,-28.987891255459232
-114.73485445263532,9.593996686406866,213.72607612241765
47.12961955499209,0.020764016048862022,72.34458067826046
213.86788534874123,1.8899805926250557,-54.93289042951841
107.46273291964211,3.373790698995659,91.45864683098385
54.86505831927184,2.2996574341897134,-161.4043258512428
-33.81864838772826,1.3232394872201492,-39.978067927324965
34.146649554845396,4.312403998894252,-3.7112536043531734
-113.47264797695908,0.24746540544588025,82.74138009684032
179.25234945927107,5.392167158808325,-161.24121551596565
82.16434997184922,1.4433006931525705,192.19204662684916
73.71808139029112,3.143231387700834,-163.950380619392
155.1872854010982,9.56254457854181,-116.07015351162208
-46.891599275263395,7.164248577444841,-76.63809317000366
101.20610332231821,3.977750753272441,-37.89826644728777
9.27561075765536,3.969522374040899,46.03043031279809
33.23580786039738,8.855609268395638,74.82663913529383
101.42864995445755,2.741146711922837,27.01444090258706
127.44015930235497,6.376735834335253,-36.790071387419964
51.25049541403301,9.10559576562311,-36.35530046030446
-75.91879961220995,9.10931185386627,37.196073429485374
30.024895890840696,5.230828898215809,-57.219258739308565
-58.900239624761454,6.545834791588224,-66.42494945118881
-100.35724440518831,0.39048239822259023,-121.67539118216921
140.39097072215668,3.5934193839084836,-134.22486208383074
46.547450512050595,3.0860232005211516,123.7743222445954
3.3322917841096653,0.6392503528037785,-16.547066238409382
136.26095355881287,8.392471074403272,44.683258119730446
124.71149368353373,8.8217247126494,26.51687185092549
144.32222905271092,3.9382739462645198,103.61347153916127
101.39557678963496,3.9731236745088783,8.306710255593554
98.77425844008883,1.3139891603538623,-50.76898095095272
62.685390369474405,7.483267939127759,126.98249851067555
-20.942970563701767,7.701563445858753,-38.79328379442648
-82.92410545215328,1.4046016645412218,-82.03650710195963
-21.250304169444888,2.022352675824254,-10.60811097425848
35.1998995208509,7.975294978087736,70.64134048508765
-8.713154308367796,5.852364615100125,-101.86311277701536
119.26548478424512,5.91957206570905,-30.70824611161508
104.91545373177335,5.263292081600628,-3.6907907807720837
-145.30589609355152,4.644887813448653,-53.14588037441727
-32.75821399191769,5.615865431436889,53.00081727400598
123.35145764398882,5.094644017021137,-92.90928216679382
80.12449110682101,0.06564795274330848,57.78852198067308
63.12229292721795,1.1119838210256994,12.905353954164486
-59.259627905825866,1.991132298732119,-122.10154568760281
27.26612944959893,2.693545866864242,52.77489784324653
-13.775237225390718,2.833579306091374,-171.68403700873208
-91.4149998432241,7.06437844449074,-73.48663374861347
-2.9145789553625328,5.610627429389057,-59.978990985587586
132.39713607177958,2.681413585271595,26.927427484433675
-5.5802906369471765,9.61866510704684,103.65569670908647
-244.85494697235873,9.402231890082188,72.22842556782159
-39.01321541831871,3.0217885739790615,41.35110998040907
-45.65842893633454,5.864057610078907,-8.453307073754093
54.48370727770796,3.8468970169141037,-12.903381204428655
-4.173291719184668,0.6292260582127951,-10.018847597486067
-200.42092308985855,7.883359738251966,-127.6485611091894
188.20539136809464,3.5210964855421114,25.893513412575363
-72.69652589832948,7.129849383807682,-118.32826241953592
13.72038314942544,0.20049781001233224,30.055605999005902
-163.4629930039121,8.064480698688342,-90.70029381246586
-165.25770010963285,3.6611850959322623,-2.251444630068739
-74.02157642815314,2.2121713879690432,91.68952982534509
69.93913928645412,0.36724268213613187,-53.34422772250538
-91.94978026046084,8.2053401128116,-142.46622620412725
36.25284279414473,8.156140767774732,122.2865757050126
85.29469124538441,3.61649177997828,-88.07282628661706
31.704397108391213,0.8103267324778063,-50.07936084846316
53.30046172664641,2.207555642057526,52.92692207715809
46.883240414396944,4.591935198066914,37.03898355662267
-34.053678671742254,5.833198620571873,41.77722855140737
-59.38737040211234,9.0667001394301,54.439813943040605
-122.44625830959993,8.521057296973373,47.95814802291603
-12.491804551611487,3.2798272516037175,111.46988065292103
-12.332963329504791,0.32149533781411055,-72.69629248326981
33.49742775245748,7.32388173557993,60.58997289532498
-30.550349698775765,0.835985803768261,-14.83686272874123
-96.7021163297147,7.077903147342397,-88.07074159185747
107.44493416507139,8.827000270103225,-110.13875681008678
247.18598921815632,6.1657184656866235,-50.26534685095931
-98.48468229594403,6.740906809461556,93.56059641530149
-27.713377923203968,4.891896700310375,106.06097877792031
-100.14358519129128,5.761670915305054,-78.78166882995143
-75.03007542891332,5.0388683917408414,115.89267258252008
73.90055152747237,0.4744352002720331,78.65937986005392
-18.92444332891269,9.406022526863701,-208.19953810242816
-96.47742553917537,2.921680154041492,-24.371611481990175
109.28547427166212,5.738328124661404,-41.7941836042986
-39.07250978138907,2.3064141162915086,48.43263219509894
-38.107272940760204,8.8102533682185,-20.416376434585676
-88.08583818889946,0.11388210610067562,-156.20571165315977
6.001874657723015,4.02160634521451,2.0820968061515686
-89.973157759286,0.17420193713388876,88.80719801910274
300.53419726717385,0.7505039298894411,-64.5410868245002
-70.45475661620266,7.682295405648776,-214.10340776104607
56.004147584736195,0.9638091956994499,30.786943576199484
-112.0171944778507,9.279970313529759,40.80147759956436
151.9048622879345,8.83324212168361,31.061846484468592
-26.207937563601874,8.38962721210162,115.08165250497994
-47.034962206015756,8.150504978888462,-13.08021527093041
202.26683856741067,8.50021532315179,-6.034417075830765
-72.87204600273441,6.611413711185205,12.830810245419086
-94.09618592551664,6.340661986166908,-73.85587871932422
21.250428124276848,9.079537005960404,78.93626542198143
-2.499928288291247,7.1559638279099556,73.95071573125394
59.64488736459362,4.832257469912702,-89.18349339529593
111.25521863750944,2.6392703328030134,-73.12786644469288
108.08082438871938,3.8480250787956347,-80.22466710703783
-65.3167570737257,8.639613435629851,-51.47862009937095
-154.0432235208576,2.8176469522808056,-133.64793605315916
160.0619299745677,6.768772853532218,-50.46257430555868
-136.05255515464316,2.1405152447508478,-73.10185700814333
-34.860676906701435,4.595679145836763,16.63663792618704
-43.76488295961507,6.658693221709118,200.00860443748448
-84.97005163244988,0.44837858725540913,-71.58081468928607
-125.2190982747248,2.3379820465461663,35.20837203862443
-82.20788943188462,1.1734988879192754,73.9858071344527
168.53210875846978,2.667181326975696,-22.66678554978968
23.540884164920307,3.610767195749338,-112.75809747616745
-18.466078414402183,9.174948107360406,-69.22946429098687
-154.33785408371511,1.6369822873290685,52.687433154320665
-4.006675905604649,4.3238081572828975,-183.99591719010604
-1.312774918284858,6.655263303353155,-97.70943346366762
-128.20089529699067,5.226103608804522,10.492855028810864
18.07989126442119,2.19589449357362,63.74140459113053
-14.198538642859143,3.432868564424001,39.73755240570663
118.13604602679129,2.090660283541502,47.90010698619886
-22.00037147166478,4.963375680042167,-143.90566620915212
165.3259787451126,9.287181286839898,88.7209077947875
-45.479976058682794,5.3849695267516315,-68.29524388641754
-147.44739398325822,4.336108910282562,38.34980870243827
-15.854691796127257,6.128962163854864,63.47498880168116
28.35642510037704,6.384692565554118,179.83213633252518
-52.36748251112607,1.094277160633308,-10.590424473357015
100.2340379717275,6.064682471841191,-16.81526979407265
-147.27272701600225,1.6028321234270793,-50.14746864573348
64.87167539053985,0.1980317547253052,10.99063977177354
31.11183387978284,2.877478771397443,124.5468174219412
-3.64828462990091,2.0482034969089913,-85.01721179835393
82.14537834017979,7.256565557468726,58.17340793661329
-5.217918135420392,4.903986422688499,266.65252816309686
89.90866582162766,1.8455938457842125,60.00942758968857
-56.54616666623484,7.829304707723169,-132.259532946428
-222.9814042369457,6.0088301973609415,-3.5115864959546563
-31.27775189169167,6.017622787514695,38.45922005869002
-132.2651423501442,2.696783037190149,-294.5772562975813
-201.6470386451069,2.8216205604869837,-86.92989263181292
-71.5990350804664,8.541432347995675,55.70104572709857
-10.320705564082285,5.067107939888217,196.84793174917957
62.09156047656157,6.27306705968803,-68.80650881701897
136.3993178373468,3.0357553315123296,6.8407419074262705
44.78851613462667,6.562812972696113,23.493736519982868
-45.617691644459995,0.46526061049663503,41.70524150060274
-188.5668070184894,6.562398150393671,-114.50357025475016
141.4069365857242,6.324797363455735,-141.69186795615556
60.97746892772912,6.277631802658278,-49.828336053793784
-103.41455306220368,5.278615789175888,-25.62988366350761
-64.38814447781914,0.325267980088223,-0.5370628177510821
-17.467216414194585,5.301659189356047,-112.54460024575641
-162.40762348278096,9.121063113622707,-67.12998994598294
-31.540960889858642,4.370422309166779,-141.93078258727027
-69.01065690563445,6.163590053565966,-162.39715099230642
131.24703808512123,2.271552667949689,21.98700749471013
-223.34399784134376,1.9034172097744895,158.22025824271998
-36.35650912772486,1.3745638789337777,42.779286863648245
-76.40230215293836,8.540623431956606,-196.65325488480653
-19.932969732908706,6.099943176173799,-23.880353470120603
167.64160501336752,8.533663485596128,-176.56507537965427
-100.78296029061735,7.580375594518238,15.363510568208369
79.32747108206118,5.5779527503754665,28.34577084250159
-185.91282295912407,3.4181702563363556,102.69098204954695
71.40770296789564,9.573785938644368,40.042449653252845
-74.35241767124894,1.0292107856366894,91.48729949506513
101.54849783056082,8.617577792242416,123.83561028247748
-40.992166350820284,4.580175808884248,78.58433747136795
170.47647563501775,7.150875388926666,-95.49997271016395
13.326019710787861,2.671033678062291,-86.95905965281831
-105.09646729663753,4.358945016647029,-44.003387670893645
44.914880115233515,0.9105616901552738,47.68679523356904
109.6251361503994,6.929535210960522,144.5313220316253
-70.45932897944785,4.277460005017689,13.772407129263655
79.77551041468898,9.682929048768045,114.9562920962151
66.02259933216669,7.484212243356033,85.51551430155682
3.178486460364141,1.198948687477731,-109.87515002180403
96.88247488159793,5.585310130943679,13.961819345556407
0.7832657679252749,8.279282309676393,2.1550769704489
-29.699011182740698,4.117744471650077,-126.32482446873759
58.78282529627845,0.024286330639720077,74.05102404739748
-58.38573223956831,3.4464268207098314,-116.25612748333214
51.39307059524365,7.198702793630261,-30.801203943734475
-216.27097659460145,9.138677720528587,49.14727840459001
82.97904179528268,2.9920931715916987,6.141400820031564
-51.10805085883835,6.813358009027747,106.91956756670098
103.67112311810334,1.8158230782516283,17.089015041677598
201.73370735546797,4.062854871226308,34.15971453231918
-101.35191444688994,1.9816345337103114,-91.74724458819871
15.694782604731062,3.702929137613571,-74.41725012802665
15.919034695644314,1.4598935577546301,106.55325478372075
-87.44818877420785,3.4491858307574597,-23.462161052908424
-83.8347167456559,1.002382247919218,-308.36851435214203
-191.74784369224452,4.661236008212456,71.87625297945395
-192.88738073606478,6.257494015092254,-95.86177526541185
10.134461942780609,8.353966812427803,-0.812566456940423
69.86441495506492,4.055053938187319,252.61058634408516
-94.30315164430758,7.478380055484653,-22.53658477388048
-45.90954850066686,0.7589190380287247,-9.779495539585312
-37.7422318117585,3.8490091597064757,-148.67767471147403
17.4013888080256,1.2676213077610854,41.30381999931127
125.93945689442229,8.479481736656556,117.04976633785822
-53.696596494830196,3.1263098172050228,73.3116371978174
-26.11245841925384,6.858521766084223,-89.97211235579566
-80.12773033177632,9.581683242386058,15.967765437304287
-75.76483873566242,0.2656128411516523,51.04622927738418
16.86769239995222,4.2179362834157335,5.820450033791644
13.48220286114329,4.487316502874078,22.076124592808647
149.66992794782388,0.6731366424211049,42.6601358972703
-156.41131151647076,4.937466681543791,4.28543441558487
105.97690532834123,1.851296978735817,-49.22449768151512
-47.482435548255964,1.0071105942489722,-157.75224435354482
21.71118959859766,2.6425405338496644,-85.81826474159432
83.97410242742478,8.82029378802115,63.58642520312935
-66.84253183049262,9.704649734950639,-127.60096618819803
-97.91345945094764,9.280169499322524,-21.950008794854654
8.71322753544052,4.24892120586362,131.76960208386464
-24.649262625703173,9.699614809298392,-5.519057425637852
217.99389179829976,1.1806164314189416,-69.77953610327367
-68.67896954701813,0.4872236637133087,-187.91201265521173
-22.737447448927078,6.0875660769529025,179.87932561554305
0.8606072287504177,9.70106075747026,-81.04143460381837
63.87572137360784,5.153561310277927,100.53420610969293
-4.962798591520295,0.9435774748621806,-99.74563654538564
-159.13261011067493,0.17353418074299243,-124.21382477901714
112.60499794055518,0.9740408538289302,-163.43990707628697
-91.2242618365402,2.412039077294992,106.33602313919693
47.33310105720147,0.08159244821116851,149.29744769017103
-71.68778956571573,7.470124489035949,-51.13442327294645
-71.92130573553618,0.3574567206543533,-9.037708900216803
135.20714938724365,3.8265180022102507,-62.837037929828895
-6.836869772299845,0.148389348853456,-45.15600290176166
34.38110863491986,3.5802506195531647,75.97316197121692
134.34853336574596,4.698899273166218,122.26975673834527
74.64762770570042,2.147556841211964,-5.514988326843765
-60.66151854059124,3.3686749253411974,-34.287696647827524
-63.968783898153234,6.662360255454475,-18.7711478582483
52.11622410596626,9.548550772610284,-18.977530466416255
-91.81826182759046,1.3715449388333723,-11.736768297623259
-93.15735681130124,2.265659970689108,51.70284767729461
-79.94605712610608,1.4494076072838014,-32.10685721016267
41.28718657483609,1.30196143352301,99.30730574973946
-43.232599982663594,5.808187974448895,181.06757391288056
-15.939338402024273,5.507237436320841,246.92167307401047
73.2449787211156,7.865281118832456,72.54349566111337
-30.26318398244457,3.9769379966944305,161.40290314160748
-53.64627399617914,7.730346949105037,23.179493372718355
-116.83400409277709,0.6027493613536505,6.557918753060068
178.7786266123493,4.586954427360918,-136.12932969740982
39.95554700807498,2.2520809215287594,10.882292788075603
138.7312432728233,1.9207651156981809,-2.1059132329015693
-32.65850135444152,2.388062360359143,-59.474077110618175
-54.839283545288176,2.43538548700422,160.70166575232264
-29.093362902892643,6.1639600458278,-80.68116274877652
-101.3241371088798,5.1689056070050245,5.031425270007106
-166.042539952071,8.621583794960555,140.35968057108698
58.18438794031845,0.5415209024058787,4.4962499234546796
38.497331044507135,2.0733035835064073,-10.551868149190392
-126.07014048494953,4.629673945590799,-85.17923822578645
52.641822038730666,7.87896036941805,-236.6169558010496
149.82786475420602,9.987137891525924,-14.191944799069434
15.933203731765044,3.765384961995175,-0.47383045251655437
-46.05469523970583,4.6975055313277085,-220.03587830806853
2.068173906928267,2.3168778882057617,-56.34565774052936
-48.13585677687481,2.9478625149443194,-11.324403190820052
164.83724024677386,6.080309137681801,56.96021181700216
77.92551181907022,4.861161593616158,-37.02302988124286
58.177936987489545,9.216520303820595,9.990004198883035
-97.9951757551682,0.901510613740022,14.037325136826464
-142.99061093517292,5.230934796386125,-19.677327016926586
5.745241048740339,6.878736060980515,-51.56629816596025
99.87777704533121,4.051163590887542,-97.20003428571621
40.7050453945891,6.725628556822706,245.95372477437581
138.65560335625818,7.175324365871619,-95.73944887197979
-100.75845295515,7.003753905257132,65.31797362950857
40.81381935338449,1.3753682315113713,43.25802568442009
9.95755604675882,5.963887672979981,-136.4650075064972
-82.62543006657057,6.344971190193247,56.76344725263635
-86.51304474800124,5.725747376924933,55.59512985513522
-45.930162724278226,3.680360028435017,-128.5416938289223
40.61090424093835,7.432270913722454,77.04652935709636
-130.61277813720844,9.273600249703806,-77.12518434434945
95.68710045787759,7.357337794796715,25.622885351367852
161.01449407555745,0.90858674463273,64.77493996164726
64.37737792248508,5.280056431292865,59.70014325528196
-33.36789045192914,4.373878085372247,56.0662187721516
-1.3127952478261533,5.629573164612939,87.40470808057226
-71.34217062598273,1.7983463099978803,-121.91131028754702
155.61591672238876,5.56541095684705,-97.73392774978237
79.11088183699222,3.5082880016488973,14.021516746923002
76.87650474736843,2.2107443462943777,-94.7972298700376
-87.2385982498099,4.539234692851596,43.82157000556601
112.08648678252567,9.503302295118845,-61.2121523799403
128.84548878087185,0.7627861312926254,-72.08450774689061
-41.60874010185815,6.33879932487376,117.95028049298895
71.60495103392577,6.7818491014501,21.673312907514998
-22.27474419859407,9.12670779256526,-171.19145675973388
-201.42198559610142,6.240539639246528,51.969343462196214
23.046810531453794,0.29412501943169467,-65.23847354207057
6.866053771432661,1.5124870433108861,-34.274246128388675
-34.805107687796124,9.943981803449462,50.31133133232514
128.88837354070185,9.419777891678605,69.01097679321275
250.0385020269193,8.119823050292775,-91.57228947323999
61.936244014881126,4.842179512072841,-62.46772591074309
65.07695865781889,0.8065090814841858,-26.461545819681653
75.11896661978625,4.098412665898521,-44.88988582957462
-143.21220611716845,0.49696798450604374,-60.91158473878302
80.54662131858585,1.9238081590583689,-17.383018642268805
119.25991848028823,0.8697599405867273,-20.797531912118732
240.98859377773653,3.782959572570798,-123.39823861455241
-27.355907623822585,9.358316226445588,23.365276150194276
-138.5268628520048,4.7519654480490985,-27.328799102220575
81.05370770148816,2.9371737434672274,-108.38951588511856
-27.82901538602653,7.895903607956476,161.57883101597105
95.07340948808776,1.4783893823835126,18.487721009098827
-1.4131211639536498,4.458116691315574,85.30943776709886
-64.84314341042612,2.144147605234278,-50.48743508020097
98.04036958997662,8.145408018110015,73.43256565194245
-104.76438384703337,7.399104870472662,-94.17686829264507
58.722990108957,8.53104165788806,-186.20719308107874
-33.14680857850403,9.504775862749069,-145.36290028723423
230.09875222419822,8.222989291526456,-85.69663642414726
-145.1524603196725,7.904719953102233,242.57046599281628
-145.13914145723572,6.58430718629282,81.92936782354693
-51.43628228275438,1.6358437695318828,150.57374722419794
147.14970727851139,2.1463487663994494,48.98054543780659
-65.04790485926105,2.5643854100210763,70.41834256229595
21.879906651226587,2.3898240288768333,3.872605570727883
-239.03133291448796,4.378041571801258,-34.64294151643452
70.04133609846023,5.228708392366743,54.044290987178314
56.84873102419405,7.413635242635554,81.65794494952054
67.61329793121823,7.468293887956933,-18.061199345273717
-85.99287152397201,1.8033617517288492,-13.762354065317611
-11.162338350342127,0.9820313547373571,-184.90919983573087
80.50891545733673,8.30453167158465,8.736377014214877
-91.0563964222236,8.006181553674827,79.81782871417501
148.6245208713499,8.028136206129085,-34.13760887500982
-87.71146571994,5.113281402883358,104.10778845274184
-63.28477396596159,9.222097052740143,194.63119835897837
-136.12413760715347,4.220026080138579,-78.89630472952777
82.46276645325374,4.652178057033089,18.34781206257764
-40.874337974595186,2.6095395707958158,-157.79202981873556
33.74607386655605,1.5348098183540237,128.63059762163022
-191.19253104431058,1.1811252756872825,-35.49499984219941
150.3486484808279,9.547382481974708,70.67922703585047
-38.621142281289295,7.95745669215834,-59.50423505937099
-66.43531791678097,8.385705806409051,-54.682575443130624
-20.76142671903218,3.777790330520144,-264.1261206094428
123.30506633284163,1.1116970321814545,-71.30416493491977
43.929420958421055,6.243776706506656,-146.85017011571594
-24.734859784510686,4.933004530098461,29.88655219814686
-36.9657307360437,1.3508278548866504,95.04558253515133
157.72777597895922,5.139513557577113,-31.567302138257165
5.401949850655688,9.012599470711947,65.34986783530343
-38.90374599944204,0.9934467285420201,64.34857210137278
-74.40250274846446,4.9589260522075325,-194.38351993800654
117.4992265589871,0.37135355852345286,-145.229914901671
-73.32503823065085,9.892735727794618,8.620151942729258
233.76385215479428,9.170675675661395,-56.36264613002224
66.84334836147508,5.128715837648371,17.512516876413343
-174.57251584844627,4.2772734185937535,-17.791162014534116
-204.38546844344935,5.379702491732522,22.139138159677525
34.36013863621276,6.683869763367657,-23.99622861850059
-7.32124484231234,6.190864533042648,-37.8011658282511
-130.83846567759338,0.041731224323456884,231.50105108574542
-221.6183959224483,9.537094436303336,64.6090898070378
78.11436962551316,0.25742074564996886,24.796170453278034
18.78514869328728,0.6090809280120313,-111.26945631164106
-90.45040636768869,5.029214500159521,-48.72654738035277
137.64535557857468,9.685335044123914,56.19077000939031
149.62527203859486,3.3587111205426314,30.097817716887004
184.95281949789324,0.18033180052025255,26.3011509415235
13.717920246265233,8.76109676683506,142.27582904711142
10.5186026871349,7.359046861087163,264.3948358519296
27.985391322472918,1.2935064298061139,55.957453271439796
-108.54670853857623,5.068798375169216,-69.92657846668538
-132.74807926657365,6.52731576487586,-194.33211677306574
34.40469800663804,5.156233961031186,-32.23213241523186
178.89498086852598,5.028793100253669,112.52359346010734
23.337934133491355,1.549115282948752,57.37562899605189
-187.3169808076652,9.03966991018368,88.15141491187636
-25.80667441109507,4.103195071591404,63.87037093286369
-30.92636329910785,8.073974833018228,122.984009520169
-6.8568593574534695,3.900574956365311,72.5449547020289
-123.23468532825166,2.721482736248645,-119.10089954957466
-63.74441587375681,1.6144359370802486,9.762010236680295
-70.39706608177806,5.613397751267902,-32.661311400766344
86.15123739479941,1.4532199259242817,-33.41517336375326
273.0648954058354,8.612811018748106,-40.261359825014196
3.536419140349276,2.1807909720687912,-110.27776803756328
-134.09856923258968,1.133986338389612,38.808049664451374
79.06112989267424,3.7954948472742798,40.138632646529466
12.43985349726396,0.996639940267654,50.52077891424642
-9.844247857994757,6.079758303718136,171.74831005320965
12.381606129900238,5.359173700046066,105.17183451799256
1.3352644971552643,8.218867849804091,4.30088997992299
107.6044551412604,1.0219634395660027,8.681222989064418
-9.153933253292896,3.2602448938483732,-69.37273024617168
-34.3864847957345,8.14521561853407,110.89437301635418
119.01687583187118,1.519358955675536,208.81497272474965
59.419626917207566,9.381647325930517,-131.36816106625585
38.421899998241166,5.052869765979791,-41.97198173721416
-103.34572727032494,6.365331678867511,-8.146621789686682
232.10826834194614,3.842045358266004,-9.904230203335755
88.54285229020613,3.13342900738363,213.15588547013436
-102.26849678615855,5.075101014442662,39.06912945770599
-124.11910480824122,0.6224883745566145,-86.883918048323
20.03973603816174,3.6386051655728444,30.151220251808695
-74.5872201700644,6.386119794677966,-177.93118821282567
-76.73947605705796,1.8079473888323472,0.1248886154082321
-67.627929787135,2.4263065641437875,-36.83641505300299
-61.27240881409172,6.979725237925231,8.64945172357924
35.255157851643574,8.928052664858994,-104.10478218040042
97.887916907587,6.329797875944648,58.66383651695131
-10.882737624228032,7.4555402964986275,-210.27186991924097
12.334752008575725,8.901496033786934,3.0611677675777877
77.78868901713639,6.079985342988542,157.01492279629448
29.552260773548,8.692320863551682,-78.64324013864844
-275.3287923203567,7.690057471606313,-68.59409166607689
-101.68507614821782,2.3186259865361047,-82.27159333267068
114.61081977758099,0.1943945661253399,-115.04908886209344
-59.41601785938791,5.772893390015813,-40.60499014653034
167.93094209586386,3.142615185879852,49.52193745774884
6.756466009990432,4.466471735974892,-78.82092663276686
130.0790041487788,5.522459720738513,-55.36166047921167
-40.94708967892644,0.5668691158516126,-7.417007711570125
101.3527821024439,4.475539332672093,81.03177433631188
88.44651446528734,2.2466201220041815,-146.00904468014494
41.95477609399072,8.298283898776951,-111.98241937614708
-171.74348004905497,6.974515595613697,10.673889881111084
-167.39348432573314,9.6729815907632,-51.592283470903624
165.39139015406366,8.28016207024998,66.19092270728576
-184.64412699659505,8.681780962694223,-97.22894296579376
16.586787243854918,8.401597761085656,55.28386428811389
181.30406597346357,4.559705598153806,132.3074395085891
136.11131383911496,8.556170488966034,-137.44339137874613
84.49460279772413,9.34164726343479,-56.81357287121729
-103.40477795053407,0.7338499960900946,159.11903651253317
31.3317677829935,4.347099203629849,48.68584652641079
101.871417565132,7.242716604355481,-269.8607753722834
-87.61903944713725,0.056388640614853935,32.23295653676976
29.134545471650885,5.58467477790285,-29.42490963934764
-6.274615209602148,2.1589504324113418,117.02492462014575
50.384395641489355,5.310703989502457,133.2191802717675
162.42601591745404,2.788921726818648,-182.9241564870008
-235.7943951259332,7.734633070113285,43.24483939976145
-20.882835558089678,9.547515615176183,-6.65985536853607
-109.81562167222263,6.979919926212622,-215.92397581357702
48.4659224689181,8.098129643185118,-51.255741446971825
-50.734415326566015,4.000354441564995,-10.798493305905941
-108.1475758911698,8.88706714181237,45.52117717533369
-85.42874012807434,0.8371262360061626,119.30689244377379
-119.16438517508179,2.0135361540386842,62.27965791683513
-63.167673597043574,4.949263959377996,-30.734937064040018
-35.394721184526915,5.657477177041087,67.07086279785197
-0.5445682797127702,8.949660985969318,75.94167906411869
34.94354738557172,6.8141812381753555,-53.745161767116464
40.802972206364565,4.692077864577681,-117.75199656864028
-22.53109992070262,1.4897242092426166,-71.0633082409402
56.79657852784764,2.2153937464204243,-58.249781520629796
163.82231795209165,5.176714732085483,126.03667531101557
102.45908005996644,6.8462583911549855,-160.79512122695948
70.42990945446827,1.4895434463312685,180.13384827353872
-8.592168737725157,6.689512479562119,-210.57836416457124
-90.62526161273215,3.9431262493005814,-11.473383702151455
53.787477706479635,4.321565799342771,-95.36228628392739
-77.96506926541333,9.680865713404792,86.57586094996019
-39.90486779553679,6.865395602136975,-27.22636852699527
-18.46408168799014,1.0481249404638715,-1.6199827144376293
50.73098659084339,0.8365825112654035,-20.83802878182493
0.2703231445574512,2.3303714705921763,58.69865161604157
-10.736711554711269,5.143620374338257,-105.45953821899154
-192.33805748248977,1.6640448359172066,142.50437896924598
-156.31193690808885,4.089132824366722,-181.4294109562783
-38.95705350764422,7.361393182732759,14.205294932656983
-179.13720908532304,4.930333592782304,47.36353738110089
53.45354721437244,1.8003369156774707,52.255791223701465
137.25698496819064,8.333074151528066,116.5159686307102
-96.3531503514453,1.6036206461330094,-81.3848244258041
69.73105170807554,3.9350969299363845,-21.813064512826646
137.96540749699798,8.487075949998738,-97.16869006269235
-155.88472566031123,0.603679966781665,-17.481404438105233
179.6192576877945,2.314875269292153,110.76232353007886
242.827992831645,9.024023831941845,-23.203421921243272
31.15641555740118,0.9433032997098256,-155.11761325073212
108.67479434083931,6.482082709484604,-84.47713982531359
63.86134394057243,6.191348321240136,-130.5900896662657
-79.25550536620281,0.6339045426751266,19.252922754912582
137.64051093932312,2.7616323812219146,-57.87087258054753
-194.76689365392562,0.986534474691293,-11.463381346868976
-26.9579803126327,1.4594062261223528,28.560392077293145
153.6927965920791,3.0351956006855287,13.752882236550326
-184.69099652204198,4.19334638164848,-95.86212277773441
-32.837507079048386,5.1174996536488955,29.315653497297816
-40.97604525963979,7.68474460788111,114.85556036263056
251.4918591184529,0.7837991767507613,-5.057659007061443
-150.6037015762073,7.5745945879010135,189.11433675071757
95.48031978252017,7.269522208738728,36.54933057529241
27.794506460390565,0.3041109357845784,-77.0849693640074
20.708299356438406,2.3674439409444235,-109.76754401683375
-78.9205304238109,5.990777753908448,68.85369507440755
-47.50987778036097,0.0138598992662331,37.525248932513485
-20.302463345755477,1.5821921835377173,77.92359508738454
56.02335140290349,4.782236097991932,-41.82723023929634
94.85156884383476,1.7263709670416327,-11.51588531522872
-169.049011344568,8.857864765079803,-22.56728842485757
-28.77885190841372,1.66001311241457,-121.60542612886567
-7.3813563617749836,9.906264984775184,34.96564614081928
-25.439317194447558,1.950395536653371,129.23545687748145
57.11151187094787,6.561328510842226,-43.29245428674902
7.092444439428848,0.9764790610762453,84.30219526569586
-37.411209935895315,6.799005421011572,-151.2283159609387
21.386397503223847,6.676089722755605,38.15643412043618
-172.62501916933186,2.001852573924563,-186.64289973614729
26.120577001560687,2.2876140390679334,-60.3154616295117
-80.40556562058603,6.185833304353862,-166.2209376130998
-28.41839313426534,6.527283976169023,-26.142368608701872
-11.981643799450374,6.472575757427805,102.22474095593535
-3.3479176122472976,5.745874641316511,-153.16848783874644
74.14078789844257,0.03223142864301254,141.23035454881736
132.3171938170985,3.935655383470978,-160.71795662251157
-68.73044067919062,4.008601340602711,-87.85792383001267
112.08593903763796,8.593237990701533,-58.12039717282849
191.21085487241015,9.730251311606583,70.20252661908648
-75.53118854394208,4.179241039802801,-121.51439054685709
-32.84954709201182,2.453467107809424,17.628022551821243
47.00014688426441,2.6287364526398993,258.3451372543772
-53.9477921458465,9.007667513334281,344.9114381566475
53.49372605727821,2.9718345555932943,-49.96497817647973
-110.69953446582521,4.160155693524842,-117.60214370416617
-85.37905075266235,2.7309934713499007,61.42733640618685
121.69539554757382,4.052068016324789,62.407828824978516
-10.16420014764096,2.251193379290436,-35.8603129932762
16.25960525384256,2.407741008252533,-27.954722274072928
71.67930051750201,8.107630424169717,80.76803921037346
35.84392003559255,7.212874270639464,1.8801045951742696
188.06406374237756,9.7854173823586,2.171384570227736
2.422921239427129,5.180707422965151,130.80715586060288
-32.96151669620008,2.551893908050861,70.40418946253246
-31.063711870787596,2.8274742548697396,17.339408791579768
-187.6519345004396,5.731027471651945,-8.378873650329528
-12.19097627620513,4.027038616167675,81.14895255238116
-172.80005374667667,4.259495203103714,158.71981820870386
-38.99218688187205,5.558917150793361,-169.92377710108346
143.39031175935952,5.496087086321092,-157.66162448166133
-0.35552801718826654,4.587294429446022,104.28090782469357
28.72968464339437,6.826179735350388,11.307409330113853
48.00161983945203,6.328498398344155,-6.077269754341716
-245.31023411080554,9.737768620763951,-55.16498198855052
34.67297090409361,3.5045481887275742,83.54519078990548
219.005239636614,6.9768430500805145,-4.783352318955695
-87.94817927628674,4.788644894187013,-74.42146450296572
-153.01768444264695,7.818188635316403,-85.33137922919461
-22.56410491485149,1.1685479295163292,22.20215756074597
-0.7626979259193307,8.096499117752147,112.26899202152592
-125.57818887801932,6.765179958486001,44.526831214604314
-55.24072747836011,0.8552008492223051,-56.44644993006251
100.1651677063911,2.479298443416873,16.87339192574847
85.85328163590754,1.553834224099867,79.84140014752712
190.18218107242618,5.1742781769968555,35.32699289751033
-121.78595100179248,6.573657817444948,23.241607363473275
-41.02543498407509,6.98286592026956,35.012966972383246
94.23259479938466,2.941519727208599,31.976751778958146
-111.90519200006645,7.478432785160991,-91.3754601611082
103.78361648905255,3.955016918104434,58.84375101598137
-17.93417367102305,4.668394903678987,140.82300293507888
-78.2891867922923,8.234025925021962,-70.06560066461
129.1901576187469,3.7914076542249986,22.40976351080694
-161.62981442488646,2.6431341347755257,57.84336792439713
79.31086470732106,4.221231964877367,164.12468052876085
-82.90239103378467,9.99745882045589,-227.16607647720588
37.43810501425212,6.209719608975261,-19.735322562829225
-146.10369700310542,4.594912194612844,-95.47219192556098
-3.4025354786688737,8.141859519398377,-8.3861291057298
-101.96466667348467,9.230941560801462,-23.725738835276474
149.120330777751,8.02121569317522,197.63977804857228
-101.7033551938515,8.309262848399378,-114.43938812269184
-107.01961013094063,4.685294950964575,-74.18295261084474
15.40096094900294,2.8860225621392277,22.043648117259735
-78.76390060808905,4.935731871687964,196.00274690156834
-223.25053020058462,5.401237516913203,38.20007523757384
45.60940244638658,0.03734569416137368,167.37142349931753
1.283640502260229,5.126681438133493,179.78363860405432
41.29045058678858,9.702119992047407,-91.46640985638771
-62.23201719219379,2.1207561002446518,28.297846317193308
96.33494775607186,8.704762423792372,-195.92349453638843
-32.64273941893088,5.7788931228737095,-184.88806770074197
-99.50408387516177,1.3775704986670234,-4.6944802057686585
40.164994430630294,0.6268236690018014,-92.76388025864303
15.579793272963974,7.1539407341021395,22.525177438382567
114.75910134214324,7.819974052100067,-134.5270145796887
47.63611687236286,8.526339625099753,-49.04803442380575
-100.37067597943793,5.338977935854858,-148.79767339312664
83.5083280644353,4.3156881764539134,191.19615342907002
9.537277930746045,9.107032894661266,-18.501810935893996
201.82547799855502,6.247729456303153,-44.97929043285264
-155.20898045448394,4.173497164555893,68.71509089815395
10.795308093644236,5.447059735826253,-70.54657213946004
-15.71141460315521,6.860555501822903,96.77259146369917
-23.920587779486382,8.304969078671629,-76.956459093924
36.12009081474661,7.95827023081814,11.02522511322734
-46.41595504987126,5.712482443360525,93.2134071635543
24.91689536899367,0.8260693652312634,-35.923287758103264
-61.78501172531582,9.14082300122644,-117.5985180943472
94.06568925270223,6.247976077086311,2.1478721982528803
-79.26382817180325,7.03153574912855,175.86177202514898
-51.18891735047371,0.2848106145670837,-34.74719753838678
-32.224622765843804,0.032696166593018106,200.2055706937025
-4.150161183011257,4.959275221856613,-84.96458219491207
22.48885454859201,5.715386326567088,-175.3734971024007
187.70140949514192,3.269406711957549,60.021728170553125
-199.6440037315479,8.375797176425323,-38.29186918160709
52.37104218942946,5.502842424078821,130.9810782752655
46.59634832870665,8.529993318483616,23.41082668643633
-80.73537172876104,6.345635531590372,-291.8166347904837
-37.15209805143633,7.548036831655033,-160.41935118172682
7.014468789092894,7.628536697992495,-22.988109390130784
131.21113340986383,7.171641861841165,-120.44262919144609
46.57763020366272,3.1329681581870474,70.01238053674751
168.98352178742593,7.591129326607371,71.266648584141
74.19084149351124,5.640731341296141,0.9655118448609192
-21.795026388243482,4.927708829908703,-90.5689490493637
42.74471141025642,4.0520450352026,156.60032713672115
18.59720973731077,7.227902961446425,276.6183273621381
-136.5879700281579,4.648380155722105,33.163216303600684
59.789695295256365,0.5475227772203572,141.74071084615412
72.20101817905228,1.7528187109869542,139.86224726243256
37.3451677631201,8.831645119230702,-72.79538568360945
-58.15798906894841,9.964118363720232,134.26119518424915
-117.89184537369941,6.2235964916479025,95.11488027042753
-49.51402546568083,9.872047182810903,135.99233161217558
119.97140216040812,3.5720706196893346,-140.11562491026933
-140.9377470360225,4.006085312295472,-100.1185081474104
-183.94823329503853,5.894286691135461,26.716493916564655
130.1850560225861,4.478568913583233,9.582324787498168
-114.37438985871857,9.833279340163127,142.6035201747115
118.16957350815001,4.963224389979243,12.002117474392126
155.33690060873698,1.7579218009575093,-162.18982392211907
-110.09104595116317,9.750563016058077,56.997015731302206
-135.3796306315029,8.784610146631804,77.06749026568491
68.32818871164872,4.808189112519847,-107.84080096637342
-145.73496161491803,1.849109025349761,2.884687339658604
4.257556345229766,8.887021166153762,-32.655981067255695
77.67931611271983,7.593593579232726,97.22392044481516
93.06047846301433,1.6056747608288646,-14.365134153123101
-117.04066199185161,9.538308550917893,105.15242624095195
39.10378076685283,6.227706205945486,-159.13339353172654
-154.7260494717936,3.5388941916270134,-62.01753884817516
114.48676896081697,8.271727839042207,170.2911644944438
-61.376766037069295,8.475538263220063,4.194322468741824
39.94122192617031,0.8664457605788534,-5.522122840922027
-52.55091043403316,6.566093530975268,137.93686726137068
75.00665592052285,7.969352000919542,47.241745069252985
-9.920287669533904,0.3586618121900331,12.972339498878831
-56.42124447717062,2.0780269643332714,27.66844630643872
-143.6977616213506,0.8040056659729422,-84.97665466656356
124.7708692821875,2.2650653703622146,2.9164559375506243
157.51927942044793,8.249442398683572,204.33045946783602
-31.53633674067583,1.7054317502124594,-59.753562889593596
-104.7829504036645,1.719135275586341,-88.27029750348436
145.20296671320781,0.786554525580988,-19.734516661257356
-14.090085789727233,4.399250368950715,50.99125053418442
-5.056771598424779,4.245416517275576,145.68513293575162
113.27388451043532,5.481567265382515,18.148101751813535
2.3228842809423447,8.776416222454095,23.821284658668684
-47.3429821096549,1.4780450758216257,9.378235606399352
-121.0695896807165,5.836513302056493,-71.28746286478658
-301.3919542399267,4.5275134921536235,65.38762341729705
112.48227486426889,1.863389698410861,-56.080578600895095
288.5175849305414,9.689967380675276,100.87241867874219
76.73673466250851,1.1467528284458828,53.84714114616942
-69.73697709016513,8.171336620305661,15.009463922840501
87.59716643734583,4.896701295269542,-13.62829490842192
-87.93016819201377,2.211278014542014,58.89461869991146
-14.54597701402443,0.3242466089649898,116.42250675332642
59.71039124644838,2.8779884024815408,-90.73196696463393
127.40546076261425,1.7620719729057366,-20.644804482626515
-68.98369060251362,1.7960817083205372,-89.06762841055699
-71.40700412346936,3.4525706037954498,-114.08893770935047
28.46952938852287,3.9377683050901915,-77.6935809439449
-38.36771436707378,1.6296109863020203,-161.40707429475518
-75.7250973358123,1.051550368538654,-57.586492290604575
68.40004820789464,2.9306965477872096,-123.40857529475531
92.90542782402021,9.560550206442137,-3.9178235875533733
25.130760518609772,0.07160715423745079,-161.3117942869143
-14.295216065892463,1.1053066245995813,-34.54389608862584
-90.41291856023463,4.614606459733736,-3.7308475962277314
35.50987704614453,6.459753271726719,-104.57814475116183
-20.72977075551172,2.651085317756637,84.31191946846141
61.077833685233465,6.204082292801143,-144.44151596680953
13.251052145495393,7.213599946723842,20.48733805933452
-25.44480370842585,3.0548585156473895,99.00682818053362
81.78063672452635,9.27292422628511,3.4644706520478707
-138.70725881725397,1.825882564119704,67.38692332185394
75.71801325127701,5.473196416345721,85.58106839005674
118.69820040295618,5.884040146343439,49.10721956362863
-48.13685112132898,5.5813676793932245,-17.278592997339672
107.96896117770498,0.598659903304054,221.77089727394502
162.7193746075757,5.894858707077711,5.79554190110288
-25.104230717051035,3.699581734827987,220.20198965316746
66.68016702704583,3.9185473815742267,15.533019771627968
-111.36377965653898,4.529763360301291,1.980046804726583
18.936210236598605,3.3406079603590513,-12.303320076094309
-47.47039800110426,7.574405798471663,-28.51595658544342
28.792593158495848,4.980334254825695,57.67103361006464
-85.24865010596994,1.652911640208088,-55.590122560149304
89.70736208409785,0.39666086541597645,98.92684755087551
153.14109443253363,3.2966904742896452,43.81986247236666
-21.324657035614802,2.4260227750000762,-74.41260224126837
107.691884990257,8.41656841820104,-132.72474909717374
0.026032471962200925,9.570525437515633,144.4207667850684
-135.93341274299738,0.5049153171515519,83.91949239564502
179.82070750677218,0.8010226707908552,83.29938085362842
33.94732120501025,2.9109755131131188,-4.232110018619242
178.46878560409613,2.8875069772516704,43.96311032671096
78.86350647679163,5.150954927174301,168.24632526534276
-13.982626076132352,4.412359921006507,-67.69001757711078
122.69780717223952,5.5846582766456105,69.86895453013703
-35.15374536515013,9.946329175698272,23.430327911297162
-61.90252455016937,1.3957179496717154,185.42270114519414
-52.35411139952245,2.2813314774095685,-69.59477492337483
20.36196644925266,4.875600957311449,-34.245879115472526
85.51041048675862,6.012484897018847,142.99713326251648
1.7597633716667715,2.1364898393910856,-211.31797291804114
285.5924645509151,3.2483751393157,112.4123826066722
6.762299624269636,1.693983966428485,57.07273345937768
80.29964661679165,1.4354619943806013,118.63274042430902
37.203848110498186,6.5215569905593895,179.73901942660987
6.298412052294827,2.3573403641003843,-20.168703813686072
103.88020058246812,4.575202191386313,34.451540144922
-71.04401743906288,4.9271415235844955,-33.851204029090894
-109.96896046954714,3.5130264613948947,92.98751001870129
44.27668047284885,5.927942991397912,-36.75547636556373
-75.93782276918813,2.0414273143556203,154.11862620138234
124.93207749414199,8.504648384587929,92.39648211740631
19.446867088294525,1.1133493264102023,38.55909021684828
-18.80881835135674,6.514443224679964,-0.6401091001129826
112.50780238039337,0.2574321150205383,-109.77180515242794
61.83779307807345,8.960840098164656,32.3256552764022
-16.45921059238762,1.3031616834838633,-37.004370884362274
-43.18546433391657,4.921314008160581,-53.887433154882444
-205.79600868691207,4.038425675481641,-1.105946780201712
223.06417550343474,6.705547907644666,41.38943268531523
1.0122696835067415,7.19597996860191,149.09966653548827
76.78345457714512,4.803892984109654,10.474763361199708
-171.81222642567172,8.624666944708865,327.8284616483801
76.80498196343504,9.925707679574305,31.729045630940416
-178.85482181085393,8.523289933658342,-163.9083888113585
37.215496841920476,6.672558438673056,-220.3323044703391
29.227797747763663,6.9542972875981,126.74785894426321
-63.00707202015996,0.07989966830390438,-127.82058381760399
-61.93455041444109,6.06528648620007,-142.60241101269054
-10.699664655854894,9.874542129458716,113.68106398899751
-65.83994831964975,0.7825532608710672,-60.196486663523395
34.66356528423201,8.867603717047878,145.5854941089491
-46.451101611824534,0.2481269053533619,-25.854129904196128
-3.3529370466136577,3.8622458492430733,89.91015722740383
111.03337053600109,2.233674100311398,5.9883788216371086
21.75784110106976,9.986580291507162,-101.02306581771869
-131.20149451659574,6.203399907979116,105.26629378951202
-105.78983842069651,9.402765825651398,-76.46688297670066
-147.7290356018234,8.110773697865522,-142.21592709845075
-37.10593801229615,8.737020938122251,38.720420322142914
-119.82556207247129,9.530433894095609,-55.12392445109269
-9.49588369202033,0.9702831793333078,-103.71499901216347
-78.7705548451804,6.038343573139901,-176.5811320375663
84.93107375528658,8.615155372848758,52.550401429646044
105.93750120389662,2.00801115225104,-1.329562830636323
102.42475069271563,0.3389410218369959,-84.7227643943653
162.2621986045359,4.265188345679344,51.34462957144821
-167.44970764655903,0.8068889675275548,-110.90664412033053
-20.753785123837456,7.185656687346572,-129.01242421533036
