-92.0395946522952,35.226536360625836,0.34096975364610527
37.71223190201849,-45.09932022915377,0.6832850627528749
46.800116274910124,-38.69829973798512,0.14257616822918717
15.426747949880113,41.000970371200694,0.054818339791749326
-84.28900426404621,10.791848882154321,0.9377856643132622
71.02307504231689,-83.50705046191553,0.254581046505173
133.48786058478072,-23.026246240209314,0.8201073590599657
-39.462226821591514,13.935314128767876,0.3890444983268794
290.88149375060294,-18.728445563605415,0.9450469019270437
128.48613213789253,65.61623596800149,0.6368596856705612
-10.472237250717708,272.644785019386,0.5426824918603231
60.68296868078463,-97.84677530776392,0.5411608919175916
-129.98137272146474,-9.840431952189482,0.7032557767642438
-111.59921449838303,47.30885005148421,0.03871914336956772
-63.555597357241076,-4.593029783340681,0.43515088279581804
63.57658342322432,-31.27720772944506,0.4133146782340691
-36.48356670638438,-15.964466729943933,0.18952584349111956
22.947049306637464,136.49170580073135,0.9415753006667188
38.822972920915255,4.444290125832542,0.32648779791377636
-247.04509075825786,42.377631375431264,0.19010544631350224
-72.58164842016008,297.1489278996203,0.6525085789797387
-86.35523814841189,27.532098694802325,0.9823611865300123
-84.88025842748974,-16.531823505491285,0.8566304012433518
-27.57622000219737,122.36630714123558,0.20129120040204018
92.95905863402423,-119.04339244627486,0.8141644737045213
-70.49868500678417,33.89747523314083,0.3507459500017317
-33.123157610930505,-199.17598855675166,0.05596488934014909
98.87983146272768,7.478754180638688,0.36717015073934145
101.32096252580473,77.87697493549672,0.007533243969378378
85.15588436229751,-94.71920441755816,0.1632074828286204
-60.531848008910195,99.60939347614766,0.9885910295262335
8.887848246490892,71.60694183872674,0.5078199304519226
20.58550262815043,51.987973723595616,0.1763089361905712
-120.37592953134163,-95.57034876113593,0.8325694308744435
-127.80697174021525,145.58777142895164,0.5302070993965696
-24.834754247534924,-45.17214559181137,0.7178776565249131
137.28005368386638,-12.054470644682317,0.05575724757550027
70.63387551664782,-72.957601403515,0.9861955011860792
-66.48004372771314,36.631850347915154,0.7819262835915529
16.201522440813694,-124.48562306707431,0.021047531251230933
84.6214316494242,23.03537279716353,0.7951836220345039
25.604171607918214,163.15352153956744,0.054026461567490136
-187.14630206550856,-64.96614575091014,0.30084866736776317
-28.81496857811007,245.76606257239303,0.5716752643601752
-35.93764260490839,-21.542943762224574,0.9032356396297974
174.0748810908797,23.975445932560202,0.33552808711130433
-83.85673322040145,-99.08450171618416,0.6615726387481813
46.02840123310234,-198.73904911889656,0.9297034716211829
-147.35096004693636,-23.274189177202544,0.6539565084197609
-84.50714922166586,-142.22925273606734,0.5436540711200097
2.7982744885382407,29.15581465367102,0.0680040648093313
-133.92484464600446,-155.28295035425086,0.6719763619856663
156.9244586541439,58.63097562182813,0.24585761185051913
-93.39691715496294,-89.30684828387379,0.22884524496108694
11.91699324232455,140.09057069046665,0.005598381585929846
-7.741636877908754,111.29362824815571,0.5223618410221613
-56.153300909064704,-152.38842867496774,0.5256113698223606
-86.31376363853421,-70.72735826310239,0.8000640147445413
140.54563624586888,34.31684788249945,0.8944747745869113
32.44640063678229,51.28244189695067,0.8643197983505679
-11.576620201449053,20.148574757125974,0.8001154839741689
31.441874286326755,-173.86791080165233,0.23801683581252875
-26.995381840898382,14.14951318402155,0.35407966977069794
249.98907558631035,29.23271028361067,0.3571960584962308
-52.675729636380616,327.6520873419623,0.8407309508262575
91.66008036838586,0.6808678564488201,0.08897575809107094
24.10582767344274,109.32948950753445,0.5464851331602085
-98.90923187992638,-153.80457640639776,0.6071321612536722
5.122569958728341,4.153636056370672,0.6712129668161676
-91.13799461546748,103.734069940835,0.9433445734863324
-2.044693345210908,-72.5929663691666,0.32272341478426814
-14.042694855589385,55.22770587331984,0.2522442057215377
-108.62684969734318,-46.531794218354285,0.7813814928416697
-13.863491227604758,-297.24351415014223,0.25784496455799866
-135.45669876983322,-87.41084698993082,0.8875856296798351
79.97967230527077,-164.33508600236937,0.35212873007755263
-103.82950222674945,98.96963858742869,0.8692214746559319
239.67476880498984,77.09836962068228,0.7438003343431941
40.29382104144149,-106.7498884621313,0.4785853915588062
69.97502236826925,59.34616428427877,0.6353060756002581
5.023130683493662,56.13669959375218,0.2976987241311395
-79.23511863836364,48.118864375320015,0.301154625939713
81.53615083438757,43.40698370705976,0.7858179275027882
-51.531924379319136,27.028173350229068,0.2112839859162613
101.52029187438265,105.68895644782437,0.24855844741207833
-118.1338704796008,87.8803914691414,0.06678867046187631
-108.67527789686527,-213.4081822680904,0.6366223266639996
-83.8017028712808,-130.21556392591188,0.9442833896094868
56.150655014714204,-33.297603896485946,0.783361739410732
45.150786311659594,-64.90840352977243,0.15028506409084386
125.30107679249407,-164.76265502556754,0.9832564362305609
60.08878555278401,-9.739262525117166,0.22835623385971537
-60.29425344363231,146.77459571272271,0.36161178897862756
67.15606755173602,22.699532600662963,0.32369106643371925
104.90539005847354,50.10442801916294,0.8080523768106856
-46.36240456181989,10.173241636423164,0.15101759693829298
64.13861646822603,95.64985513541774,0.2192740541161452
-102.89758673689498,-68.52490798122106,0.7284702260453518
104.1504465624809,-210.05343505038616,0.13165328715950908
51.55109294566482,-71.13456615114798,0.215084760398096
42.083865507357615,77.99928720816763,0.6288355574147383
125.63168270928118,157.43038228012009,0.5095973296283703
1.1196676488187531,26.72153722140077,0.5006371079238595
46.592131799287905,-2.2159295604392932,0.8037292035524107
-11.689993614176638,158.79520127236165,0.9356188391118045
100.792824888463,-122.71773125776602,0.5655732704622554
-117.73352030683921,-107.84948024854224,0.001532084647678178
32.78166681844103,-19.556575808490802,0.1277304448565837
-33.30261000462201,10.018088627022276,0.5336006602188947
136.84174168079144,68.15322406348936,0.7448803012567906
179.71207390429527,70.32691152709187,0.5877009759289319
-37.14536799734698,-94.45972612201177,0.7590229309423829
14.71562747600641,-30.55200439784638,0.7137380984450034
-139.8488945866297,-219.20986110140595,0.8520603937294357
224.9585058802288,230.05972148100798,0.9102585655199299
111.7129876172102,26.667382081809883,0.2394362995127477
99.61934425630142,14.302343506379328,0.22158932651195518
16.521628268299175,40.48449924183098,0.6731037237333087
42.48598226821508,104.45981252867375,0.03933198736109811
-108.71477769106737,-32.39578608247008,0.47846258180105283
192.09739183332704,-29.857123418089067,0.7346827462574477
-124.86227923914197,54.605034932258256,0.22047512559505789
-4.836061730777278,42.516713625439294,0.6662499893175742
-57.983825608823324,81.58389082023504,0.6455990874713214
131.1846544132526,-77.20793947347131,0.9974294359068009
-27.735962291623036,-140.71382715286876,0.10652656212836664
66.66221562621992,-257.0800591670848,0.7127535317064987
21.983065375140598,-17.771386238595873,0.1620079768004441
36.41843623479574,24.876237765356553,0.20133005281523964
25.198024162824673,56.89067053284261,0.2788666041920742
-59.2574066840201,18.72988208723056,0.34634992561303646
-250.02167012572482,67.49317004347043,0.3916975727784272
-270.7552848840577,235.99136408210146,0.9364452618940895
-23.633577028977797,69.34282535269854,0.5443546889875334
27.234676087372172,250.68868216186817,0.4135987655817782
-94.79460605066379,94.8290096164,0.2446046769341217
-93.1639110882433,2.7007562812346606,0.114363243066961
157.83860489664292,-61.07766474957017,0.026349889171406127
265.7981827144623,-64.52082710506814,0.48463922084180844
96.1124638887757,-202.51641774055975,0.9376789989611163
-52.96923741197026,143.76152078999237,0.30508411156163084
-87.4493207511873,112.672120023107,0.6278230598389052
-4.69682582264375,61.48999140295326,0.15794373216693547
113.4748142826637,-244.16582898552724,0.9045687492089166
142.62751034914797,-55.99901944611808,0.026702099325792705
151.190237586593,-153.83351517496206,0.09584593099008265
-91.63261629216606,-139.969417620168,0.529425984495667
61.6888415166745,328.9385939428737,0.07059421117128029
36.806471540443155,-31.77251313399294,0.9535643483565136
-198.82191577755867,84.35542322782061,0.44929849358447516
-38.566959929512876,28.428599294939726,0.20139313262878744
110.29532507675208,86.56890125204315,0.021233351751699492
-38.28683676704204,-267.7206681942433,0.35234473697083313
42.63617972183623,180.89565988090231,0.8538725936573018
-39.998111550881106,8.661874558433738,0.6235626892179126
44.870361930932894,131.85760023715085,0.09518784042699768
-80.0431419978948,-76.80923973271511,0.42440303638007815
1.9703230674218486,-159.87248606088838,0.42415298631005516
81.26354555004347,22.733467483532955,0.7392102390444496
-222.08284541472287,48.60204218456596,0.09510888345444446
14.040096718357978,-36.113138615918125,0.22261828175565157
-179.65645730818366,-82.33664980756194,0.41653139268836625
-56.802648581251994,178.55983290252829,0.21666135744703774
195.72806387117376,69.90172347616708,0.9227131654452893
221.33592707327816,-84.92524755833006,0.5908776304609906
-66.42192147821048,-206.44313420062227,0.11825829683228961
113.9579897480072,157.81644766783796,0.6912898767133575
-137.9358357209764,-42.46361022707861,0.7862610017913683
20.576831650104225,-48.985220938081945,0.33570629652770834
-78.85858841675113,12.1131636576503,0.02164273343494094
-192.53710776040808,1.2849509710561604,0.32534458628050245
-26.289962570109548,75.32963250649077,0.40091967655063987
148.1667788418316,19.479298423534733,0.7656956485959708
185.80576345691674,64.73878650303391,0.009865535216474597
103.5996547527489,-23.688390883418055,0.04265724370026902
-12.835582519253737,96.78662174666036,0.6475991085715916
157.95316022046416,237.2982064082195,0.2194844252219208
61.977187688343946,45.59504764590866,0.05374009539964908
-140.065780829565,-98.60383679416137,0.7628191946624844
101.19677229321596,-3.6329451099803545,0.7163010488544413
-117.30381709621855,-18.128315509208957,0.8424254365443862
-3.816345450394529,-163.0967399586971,0.7491187170050779
-57.93207257293872,28.190924997210615,0.4834073064524531
17.524915517499963,192.49255355037346,0.8720968418251666
231.40359679542462,-86.67998558188772,0.25892235479230996
-18.08345648884451,-5.183223578961214,0.6087222609146196
-6.208730020626337,124.65667466062749,0.04632210731581676
-70.21638613238227,-58.93244574385127,0.17908807890701017
-82.8191164685508,-33.728056045584694,0.7208438544077025
103.54964103334288,12.756435015320447,0.3908690650565294
-117.67363230671634,-58.17104606663139,0.44697690140183444
-120.03550770777262,28.497933018570127,0.65256609359759
47.75646403346625,11.680043028893056,0.13298127721318986
-19.74282959138949,-41.8052219149637,0.9915359875961506
-48.24280192599748,33.94424757548077,0.10589674843260988
86.92518414308299,-62.83165723274349,0.5011965949219491
177.36949820115376,223.86051091163677,0.1944958171904675
50.02400925061939,3.8837753939049007,0.6433339197085626
7.032899755532883,-20.82850973473691,0.13073333762798123
157.79841193838712,4.64205788087905,0.04453996999803478
1.2522712681885007,47.69999013949631,0.5563248851591467
-95.28235286406556,98.59686064090867,0.32284637258745064
-97.80771108293398,79.23526943471094,0.9547412818396437
111.4618433422679,-58.81585758180405,0.8925300701465152
122.57433028212175,-168.89769792641195,0.7221288859327746
22.96363837081518,47.913692150847396,0.571860897984163
12.23939242938214,125.15096362145208,0.8817264230672153
72.20095812702664,71.89630863309036,0.18419808057837062
189.61510472527985,102.61449600049308,0.24484679214891814
7.272007119285365,84.85039529421782,0.002198473076569951
271.1278366929654,76.60033866822393,0.7509905130787786
21.267750412722872,-70.53686833498286,0.21359194207074084
-122.17248289820884,-120.79200629864029,0.6104689462949936
89.92953740182797,86.93244481684921,0.707195790374647
-54.84149457358834,33.74510855818238,0.31009833703259326
-56.84585249850157,-35.19512453212672,0.17366074731183845
-1.652482009346723,-87.44864758314226,0.8320223240977133
22.588840351547166,205.04059217179588,0.36540814979991143
-20.52019461337224,-8.358888998229206,0.09936768473131075
264.48659975968616,81.76640782177455,0.30215415329119366
-70.9999292528325,99.9914511179727,0.8652291558968677
-37.46697920665876,-36.491294064005416,0.3608118911848096
24.027482112584696,87.78591398375835,0.7363266112535135
11.698185240589924,-242.51407088560674,0.5441235832042433
-21.65210040581485,-137.73563989506664,0.20630292859385957
80.16835134564376,-4.303880217489139,0.13883564065310294
-22.338676158807424,108.75800018648205,0.21057598218048246
-97.7312720697473,-165.07164106775895,0.7732903487205236
35.87358013875577,-113.99604006231652,0.485810183610463
61.30004527384363,100.06630827970496,0.7492957963487058
3.775047509444349,-248.7949443637068,0.9600822452144052
40.120775641732884,-91.2564988546464,0.28356597687284546
-15.267307073391848,-235.40595647838245,0.3686249609194121
-158.49819213017366,52.61534096925301,0.9911076202162968
116.03010666587778,108.97886429632646,0.09853495693507575
-263.409912393455,175.86460056971177,0.858041239736234
0.5292067348500088,-62.907213115418955,0.5919450474083102
-146.5556418975104,-0.9746468584447953,0.34321513669902526
132.0840811490337,6.769272599609604,0.9185168273488177
-99.93867531792567,-159.27438666664167,0.8525352827356596
-101.41920208353949,-11.749536857207437,0.6783230637509049
-150.87232028647816,-48.352157171012436,0.8617136054068468
15.860651107513771,-122.75456017005322,0.3779936715128661
68.22109069290201,6.108961932203736,0.03249706522059115
-58.193135697253226,-64.43710109079399,0.0185207414542099
-41.81302237169896,-2.4611066628657845,0.39904254305888576
73.27238794848462,-60.97093704530801,0.4049582435825808
41.75137591177883,91.79422224419447,0.5708040259766055
89.47615946713636,139.9744840973961,0.10587231804331565
-9.535590017294712,-24.710304658663993,0.8936792216637949
30.281039444415708,-87.33326946673941,0.5879055390478339
66.06472773493343,-160.90396841615703,0.2950143054378741
188.5739710068881,91.28822996816365,0.6765202278152603
-17.814603080526428,-121.97866229274051,0.9277345032611085
153.92926710491105,18.451388332305726,0.569090406568218
55.99522538158877,-48.628720636452485,0.20983385731967064
-38.231199145200115,2.87112004106395,0.6444253219035595
-171.66625585373407,100.22277773150161,0.3531789750015404
-21.802381613134806,-44.862706737861316,0.45365376257115464
-38.44554901026805,10.924980112523746,0.17639681580473887
26.330842375010416,40.51886572634787,0.6497806695555393
-64.98881412735288,-37.6755925374991,0.8589849099369035
-22.157765756117527,-176.97916030241362,0.10594153062238398
57.504527728926526,26.9310745257094,0.11043320256199418
-109.96478994304648,28.98545461472148,0.790233330848286
6.850508447959556,272.63326249891475,0.7114385150267097
-11.971463585598485,-75.06213391029074,0.24053734020040063
44.526440274829596,231.87284806993534,0.8676804987803309
10.358782696411598,-69.04499231025328,0.5150804207141035
45.32292075399451,47.14845977583988,0.6214942591790996
59.74056156144519,51.69625505292777,0.20138669678364807
-9.554121217343406,217.36142531074748,0.4353920244698892
29.093477565047092,13.575228890489113,0.5124495153865306
-56.53694912015326,105.25531638527272,0.8519217080711066
-11.001901283087326,93.91134145850837,0.9465848902202106
26.586077523349317,-186.4704211193535,0.8076648832237091
93.92242183237497,-59.041389303509696,0.24644397263998397
-36.3643032681798,21.552392492983937,0.39272867700963343
-117.11818507449989,37.41347358395821,0.29082021173022177
-41.67074736701697,108.41484533543778,0.7416945482421805
16.39736080037124,-81.1186534688896,0.4207161301870539
118.5755852600935,259.6085730591308,0.6760908420310743
-100.58474115214966,59.59566753471597,0.9828028428122252
19.29260630179555,-128.6183907145495,0.29312557914629234
158.62750105601066,40.040880206895466,0.35499427738916867
-92.67588169564105,-140.36305030837104,0.09882312339438093
85.83677497534588,47.850643544226735,0.8971354244232117
140.6472598885979,-32.59776801577021,0.07654842186957578
82.02811961913255,-39.27189140543005,0.2901234638344736
-14.10226291454413,16.341657956557896,0.6300414418984467
-91.15697275258732,31.480855880814367,0.41365281276289745
-101.2377076978765,-170.22557081712162,0.8392318891032611
151.3714311622433,-69.43082589573673,0.20079349777887368
-105.34413121039576,196.74658051576657,0.08089389070311559
-4.656069811990867,-38.42097161589383,0.942675928485779
-105.90991339832276,-99.66109234740354,0.43828546264455537
-42.35875464852633,85.81963432997128,0.4097736573062869
110.57065974462881,136.89869439398342,0.4498219068198307
24.712694133647087,20.198166718333287,0.6358561785615777
65.76864149723988,117.38544071326078,0.5711461188586997
-73.25557498055065,76.21465250411013,0.3103782358913534
-44.39992825958164,9.238659098871656,0.7002022852195381
1.7599117448396238,-135.68967541770164,0.696516114653664
-23.35528227204337,235.0770484910856,0.784413659783203
26.57079128739628,-24.737837191002306,0.7186415593732353
164.63210086996298,135.00393429991183,0.7173768497228922
-130.4017324963125,39.76588788909222,0.7493083643753243
140.27939174750423,85.15949788811031,0.21460212160623615
-75.62665287817705,-203.4779696234791,0.7414426203131984
121.33335365464988,-108.37243505919747,0.9891276179873082
81.08840772478236,-56.35479396077078,0.3467393876054745
149.8121080108021,-63.82838646562053,0.8937799730567049
-68.84268587364562,-67.00120154072734,0.6077871751782816
106.75331165226845,38.10945856713852,0.6458762371980045
-154.84353219854646,-10.14388133480651,0.09547033364461965
-179.5109541514614,13.6996139477562,0.4710208894294665
35.36490521291603,39.7147837482485,0.026147046293035436
63.03467068062143,61.71685237523046,0.10900222729857378
-79.9490642831251,-260.42155009073645,0.4959121221028405
41.87691722089438,132.6286407237536,0.038497385072747914
3.194648367216888,-59.8776867051397,0.16729873939518125
-22.144866190083047,-46.9844282271845,0.6959103732142949
159.42994953902883,-112.56926267904639,0.49259402062561997
-134.27935828517624,-213.91998624384718,0.73200003468005
-22.60957421236413,-87.28246610636523,0.9788749359365491
116.60764254655267,60.68444609076838,0.7114850770233093
-15.63080200120536,-134.44047159075618,0.012877036226109806
-212.16289229848618,-71.99438903561408,0.36172474749173
-19.057241267107848,84.9691669586556,0.7296868996102807
9.373564490922014,105.96196703154321,0.2879343191813246
-53.91032049679203,71.18051765977779,0.08883779431880479
199.07937418925465,8.03695916280121,0.2387560755137611
-7.196693212568868,137.27981723755275,0.3802525237230745
32.07837683143216,35.609019416183926,0.8494301277284845
-63.52521333752418,67.42087512105557,0.0597781144087568
28.148862775985034,109.21926031765715,0.2714843103857236
7.0842076178876985,78.77999603480048,0.8796132248120859
-119.63164869864622,38.10569379955572,0.008427483944341785
-13.153638061782424,-58.236200499348826,0.049974044659361505
34.93822479999945,27.702783157955295,0.31667171054293575
-17.09571163425985,-59.66660837872922,0.12216341092822192
135.6657940091725,-51.96011585938085,0.9132485049275213
-89.78728205851127,-15.703728312273837,0.7999795818418294
22.325388954630824,244.69977942498508,0.48787682940410093
-44.828767777452136,-89.71851498521723,0.8352349273079183
212.54636107767882,-13.482420752855361,0.5075221750453249
100.90252388020706,-180.1558599716071,0.347975246838488
-53.811740916030445,61.16450898344097,0.5760224511686092
95.87551023742202,-87.85352298643805,0.23740919437031271
130.25792662820595,-12.698879507975017,0.591860143962709
-1.5875602437708598,-36.998070265996574,0.2842793772541691
52.31967512476733,-11.595228791074698,0.13854471031096038
112.32414341040892,-160.1781166245499,0.262423898278634
55.504429137433775,145.76529166327285,0.34085621400692667
-127.58664752971143,145.53490923101077,0.6807710688016829
-110.59372886313463,66.2607959137684,0.5384960292428804
68.2596380346506,9.663966610150757,0.8848211153572202
-18.55926255779737,-56.238908573555115,0.25816831698248544
48.21273011231401,-85.73394073397563,0.24180871499017786
8.31263954256714,-66.7970879778342,0.20060573830239192
-69.28311193950009,-145.05819943679893,0.18720761768405225
-7.226104371452348,91.91018557956477,0.39992381371051233
49.319999917990046,-5.336755977526519,0.5228760036355632
9.73636498668173,42.19580840636865,0.11196335882276764
128.7644349286978,142.8406116256076,0.42402981199155454
69.15812439448476,-182.0404832613767,0.2998988649103771
-50.54278912026455,-146.46885095650646,0.07817703023442157
52.54671019767936,84.71899860078993,0.25440042209392955
-72.94808497969514,-152.57962508684872,0.862288528516339
95.67071416542059,142.65449784566732,0.06936587354793033
-120.32743640402279,-6.434910518513878,0.9712328052230474
197.88074066104778,6.141544432174382,0.372487824063203
105.22960000299584,-44.640908922082986,0.215152866695696
7.74342435536253,165.55647328192893,0.6802389540051957
96.39225386360036,-130.85988913942197,0.5241510224118076
20.50202936073591,-198.85239577584193,0.5302538344054117
-20.955371025210816,143.7396149601893,0.22281311644119406
149.69287861614436,109.22265669935433,0.14870705480463808
59.301524700821176,132.4567020024548,0.12749506786156972
19.431622633370676,-45.739791999147805,0.07599106840717373
102.00298223287929,25.226345660755356,0.6012334729810377
-68.67557435285664,-254.30606965275646,0.3355077155558306
-82.62714366632697,8.005098513676263,0.9520434585047174
-88.75175591070978,146.8719147153278,0.9133343651846539
84.4558287332419,-74.1050291898207,0.5302808469703275
-105.46127009927706,56.27433760949271,0.41297328245868103
-12.515504482785822,-3.2338129087413034,0.12407541571436109
-79.10003798482117,42.49033138164647,0.06903617253415317
41.00298898750672,-63.14526217066737,0.618423132731469
-175.13203542007406,117.51381791029662,0.08310600442957061
88.28655819176447,-148.3096716652321,0.7338687805277193
137.65677640267603,-116.705434566634,0.41903287791230237
-46.03720799462268,-116.61148649497473,0.10505043775880685
25.421076448197756,64.51656126828115,0.5420072900420956
62.22656204676367,-82.87090312502124,0.8499457096048567
80.76022140296134,23.79639736449901,0.9029885101477498
103.29360497265444,86.91663698771335,0.23383225849700529
-0.8373664323200756,-5.109046952155216,0.11220312123624088
-21.08414879543981,-15.312279220190753,0.8870422602760621
252.54104170194586,203.74359540949163,0.5929094308303166
8.406770069368946,165.78638248880176,0.2963609790068179
66.76069464162994,-31.4765637935957,0.8852893274355836
-115.06559019583102,-61.749584480840014,0.09442773076512889
196.0561112705455,95.04677306102425,0.2514236979491591
48.32939909077001,79.63713799104282,0.3860079367332918
-136.96615816646204,331.13400552404255,0.941205732046295
47.145788763155,163.20654127333515,0.2540121978160478
132.75239417150652,-155.53492246806343,0.008244478895351959
186.66589677439816,127.9155779577837,0.7232396019224911
-38.80714258865253,-137.2913005025725,0.10440348439504266
-79.41078859663288,-69.37695654302722,0.12940771193047085
-136.9931698619576,-186.81705035193386,0.7392567302904663
-71.90187698459235,-158.24049566178883,0.9150834677226656
-35.99228172098155,-170.2207190967943,0.43648672511940123
-3.825432253478693,-52.61299418301999,0.5393518201304366
-174.02143782852613,-52.4642967546726,0.2947567838298921
-263.42695952245737,26.670919598704412,0.5765143287883093
98.70572606326233,-118.21215136293522,0.2496781088509762
48.79430953433139,-28.99725130716511,0.9132455097519331
-39.750391117948936,20.71613374778011,0.29039170021565197
78.42374537514175,150.1724016515481,0.7554921342011536
96.28887660208663,54.678854466688264,0.531447344354398
66.06829334979913,-103.13723791771578,0.9791797059835459
-64.79647703386931,-154.41483360476457,0.8804699013144568
113.03190979375127,-10.711349640712706,0.6136303018973724
70.11153889144968,-182.14637837436482,0.6055899376515828
-9.890718991547764,41.16130359351781,0.12160418092313507
27.004424494318297,-98.95240752280975,0.8531577101930279
179.8339110600092,-35.36420177934172,0.15174950300422485
-93.3295390309008,-38.26308449988757,0.5047367086345735
-132.97591374517458,184.46672206694655,0.35541333520361995
68.62719531948265,-62.314299820842045,0.24831627047321092
-209.57783855327588,-36.95997512027856,0.4351609155524626
-49.8614166650473,-154.9778886065636,0.3426261763320595
-68.35037024849544,116.00623796774832,0.29760884041489144
91.42467264802065,-73.9570465529758,0.6689754518937056
188.92665726306987,-29.985211352636714,0.07576032315197323
195.70206997128196,33.546338480846,0.6391639781185183
-15.25979154144749,-62.931901163754425,0.6422073074485789
7.836379295687408,97.33340914931345,0.5085134834615213
-5.165623519128683,28.65396564158569,0.7746062739751137
-15.74992321732841,-6.47874641955513,0.3826135882099255
93.73848529217405,82.37931789359416,0.7879580390710357
40.83226904761065,171.13181605710034,0.5135830918273737
-9.488003414529231,64.83945533750493,0.8325174501367758
50.42075435714002,-81.31811770825439,0.43679292151402516
85.52287658198942,49.95576106104861,0.8195153269127404
7.074170189096401,-131.7679376761845,0.6066890415599384
18.58400585892997,-142.01889450740396,0.9833332720518656
138.70705337899983,85.00152130659515,0.7501065635307899
-10.433601046969002,107.0942472575228,0.5074246927414554
-90.16627544615103,48.15175899732987,0.2600067034524667
-21.99642961334584,-93.77000221608368,0.5587060856145827
49.87406646668725,-17.700084609673446,0.32686574840711446
116.16289466937475,-57.653907575435625,0.11754531718300665
-61.19152365207238,65.54190499772896,0.650809229804254
-11.38928525373586,15.806904833309513,0.5450330965110706
20.07956377792455,100.73273896149747,0.7235165890796732
-306.6253745628904,-74.0275303151543,0.3301647160575324
-99.3474782262814,-18.095337443357327,0.16519034676110522
-152.72060836614983,41.25382177578104,0.665329376096814
237.4257663435702,65.74086165137759,0.5615001860968089
-0.9433550100353859,-90.57080923721622,0.8825804310245757
-140.04476125821367,106.32964059526229,0.44731474212455125
87.52195569526855,243.97429587882183,0.5509815574811433
61.70759150489234,133.27779835662216,0.6830437381602406
72.04561630708177,-9.628692326380651,0.24219466651294208
-19.33401677177439,-14.85550207269678,0.2510137584024439
22.257267508121483,-0.5748065821216141,0.8849490212679936
-50.1488537702227,35.64010612765801,0.5771066492181057
-57.09009340429725,65.7660393444906,0.31643536817718787
147.68848024505135,-39.58841628475713,0.05599044872601611
8.24338183940712,72.1883316523677,0.8204055494597352
-120.44119382409919,-97.40778860942882,0.7070734284256152
-43.76747795570016,141.90437024228763,0.31390847155871726
-136.9068557190728,105.17785534863404,0.05027425334615987
-127.11040803364271,-47.37484221566793,0.7368881731032352
-108.88013899783557,108.7109051802106,0.12110442524320997
27.634247562317455,19.16827706500589,0.6556106325166388
-132.67162247023728,-121.78356338843976,0.9568293264677482
43.00038915265235,-63.5063330308258,0.7422916168746856
56.08108875790243,-92.62944196133701,0.8920281054319004
-51.36131600508417,217.44638586491808,0.5046743870280779
82.62283739276425,-92.3103087894842,0.6640498837812241
264.3070651419335,-98.33835596599569,0.6255835831695814
70.55192657083859,-40.30911209773277,0.5494361441918945
-4.497991401389639,-141.1859568770833,0.04072347125723608
-22.62578354385431,107.86107622839864,0.34342277524566944
-36.24300861162853,-94.54322621579242,0.0825071594708352
103.48024162286877,-87.69926149670837,0.6351501519821201
-85.17911176794966,66.47674772187814,0.7111317426013947
-50.420931998404185,-18.83302907831843,0.2406740488135115
-88.11764554661153,150.2001150977731,0.39754517711881954
7.024406105318547,-141.3468883418026,0.9299538337546842
-168.29309073257113,-6.394797282437647,0.8220225911508987
-97.51175979877209,-35.58487453473426,0.19754831186893063
190.47743213940583,12.737231967523405,0.7347818833205539
-34.41840502547906,3.05382546767813,0.5921695576885924
-33.7038567972217,101.99545430024044,0.7299394170831662
39.88694303861426,173.16615509865454,0.8204886868123488
12.5889582932824,-104.64048223605187,0.03175630375928584
-56.24704202798122,-25.828517312563815,0.3547506339535499
51.47849057647185,-115.81494217753139,0.4860144445793285
67.35360861011728,10.983103950095627,0.8166116453527256
-28.99125818267635,-38.779096919480885,0.9434318104869996
192.73596641739059,-76.3244702058681,0.08290357994557884
-37.581128130027324,2.280447790331932,0.1491461489087773
-148.13960662605038,-110.48437868886549,0.11192118960651654
18.11503755343197,92.23358681499086,0.47120446631926494
154.645671588102,170.82431135506192,0.9539886968069867
-111.05389237151128,39.026308589189455,0.463630967962533
70.24458350369962,53.64682838850373,0.21602583672042097
59.45828844348664,-77.85969311624687,0.22802110742935067
-21.130350689648246,168.59252747107067,0.7900677097619604
19.058915151533657,-10.029171782260509,0.629641162284457
-92.02426586695832,164.75156415971054,0.915231553512741
-9.665456796322028,46.75256385673534,0.6453990778678194
-61.6613762609907,188.3712921395724,0.7917638619488712
-124.95201443913993,23.39195141995147,0.4657137244725684
-12.667385478747557,-106.8830069916886,0.2350317932905429
-71.19750485233767,189.16626319075453,0.8050287573451462
212.94213072624316,-40.078092123441714,0.8905721336181592
-31.9018926283054,36.782872111315875,0.0705350643949334
-24.593656865464514,-93.141031591036,0.18298300890342334
210.7830377987463,110.8855356382499,0.8663321622715064
123.92773141363533,-146.38822123252703,0.33769530447478124
-56.210289319298276,127.06141562680111,0.9282786786175272
-22.32325986292314,-33.08729027397895,0.6230830551278632
8.852314399678471,-34.293263011980166,0.8160129301082424
-37.00504320116542,-126.34714876517145,0.8283895061808874
28.438875883368762,7.048769053889519,0.9162891146769352
-36.417369595696634,-3.593931852466261,0.6239955262082115
-69.41912856556279,-28.593192176476823,0.017474072271961294
-37.274181544459815,-42.39860441341444,0.634481011606764
-29.7272371722922,143.77832446059165,0.9769789120401576
-74.34516872275435,-76.27489798994603,0.5728755861634789
16.255385802555463,-155.3684694780016,0.9798516140663956
-4.981077953938748,-137.332884203814,0.38100316396018863
-29.637931475358936,121.15041928318546,0.0738133249293692
177.44152238081958,81.3116776672449,0.9390208676729713
89.33263263911904,36.810060562435766,0.21692171233139101
33.756119511689874,144.93780041830482,0.5642566171020509
-1.6988576617625106,66.31943116239152,0.13778269655836628
-0.5304424607556466,32.37018727655182,0.9421351567295633
-0.7762101488005781,74.88265458769982,0.26540857722653477
-76.50550210303723,87.03933239637666,0.9067802065429263
135.71173732695996,-120.15861109211075,0.8389038595832169
75.02953898956794,60.37169905535289,0.5045660026836352
-85.82995615296322,-68.4119779766885,0.7666034939732969
17.626086883965616,-48.75275181951653,0.44969154188319227
-109.48447476765996,-7.894301272698057,0.2290281405080673
-85.43155072636634,96.07622914210397,0.2919834291289295
75.86918587398634,28.100033549296132,0.6704433208501059
188.9102012663816,-112.53224972314821,0.9817536733438632
87.58718118413104,-116.27245237427195,0.7555028998377857
52.85040827560206,89.16201699535986,0.8905313308523698
10.386452370635183,13.225601109952825,0.8549900450920792
128.20105223389652,85.07516176894727,0.03927889692596953
-58.573708421664186,113.13287941576621,0.1388955004567226
157.09951026764855,-0.3193048850018217,0.34502007952871583
-58.89140383374718,66.56259008178455,0.594685887494936
41.928467790200536,-101.19802882283528,0.13525411236916152
29.517498612550302,22.156144316269387,0.21839890118475092
217.35224429149076,-73.19762543435395,0.9541097855773445
-246.08527297053254,-74.1414028507849,0.8154987482370543
114.09702720175498,-13.76155177420301,0.6079014599698231
104.92774728106721,24.162361384496453,0.2563864464744564
-34.886395357225055,17.3104707900766,0.573638482590169
14.92119581445965,113.96945503646579,0.7404046957480077
31.977780477480838,-221.50279242392915,0.7915536519630986
130.29722939693994,11.230805992368543,0.23714952564223724
-109.64722104750702,98.39174043475023,0.8617088998110815
-20.024980707410922,-51.46995976317888,0.8289794292594846
15.875869049417599,87.7756557882267,0.3815649959786983
-108.01341468549381,-27.776428395602444,0.7767041053133338
-122.28124624828449,-48.093004470173625,0.8579417715184295
-125.51823267883897,75.47566623429736,0.3217544205034062
-38.309615583666144,-95.66328771173164,0.1696586585918023
61.93590862163414,79.04069133112803,0.9704399093367313
-9.551533107415644,157.51487164759558,0.31307499105921477
118.1023902321233,-85.62943193003998,0.5998696730949179
-123.01088085010163,80.13489363091487,0.3441599187266242
-42.84132112217704,47.09924986958671,0.9618920412985834
-128.77514505922406,-93.93807782580848,0.299563928733823
103.84597241974008,49.142921894836455,0.49489122882772485
-26.68341292230326,-93.55229350600473,0.892113351230114
40.95587178554643,45.93331359163372,0.7493117734577217
105.57656033628757,-66.44997982085815,0.7096505058131158
176.85941728513285,16.133882124950066,0.3251798622456875
76.32813903742831,65.97008963948102,0.6722259550006658
-167.56490970173127,-79.46056344369362,0.39845162215800967
-2.080130003835862,-49.46489195044723,0.6867972828154347
-17.686749867404334,124.24111080742438,0.07015306639043362
153.28181338166672,-54.38684619688274,0.16484258891922854
17.551664414693985,84.19482971284665,0.27775008739076634
-84.03299062920418,-14.432624933662813,0.0052651090279187684
146.4030171261423,53.39353755802667,0.7320192177119034
96.81939378694547,14.711834041018172,0.7005999508108095
95.72507245807765,-229.9634101201017,0.5213954208877637
-41.35427949955642,-134.8235081673309,0.5497450469207619
-157.570531144775,-154.35634363164493,0.5933966126351536
-1.675305961926989,-24.35488699062483,0.11197320441763936
40.994119171163405,-151.91844442052263,0.966531488530965
-0.8361999063744074,56.82619406086512,0.5597598669537978
121.09279577103634,-0.9348889557726404,0.03475560077857165
-146.64731048308687,221.02313289049985,0.6707266099268062
87.87609411268022,46.890327446843024,0.9043288207886392
50.41185520226964,-54.28070053400794,0.2662289231203375
13.707737584568266,-22.045932461874777,0.22021307445049287
115.54254675938438,96.82069205280938,0.22682805698741748
-12.650543681284782,58.64077768756816,0.962430131066475
21.122565205244253,34.71985700417889,0.5613846833382782
239.07842783826024,-55.54939401191823,0.4616609714715053
-94.70614682193249,-16.620155393792956,0.6353930174042336
181.99149127675577,-140.78518136493986,0.5767113000312954
-80.47936474834712,-149.43933887122594,0.4644120395789092
1.5009541255192491,-103.53776690754192,0.3215793709573417
-82.29996706158371,5.255814886666804,0.698709729686273
-20.70720878092082,-167.16754135803092,0.9831408735408043
-146.6141920913979,62.583136789491164,0.44845040961042826
27.15675911169701,11.595034966995406,0.8252850467937918
61.889410388086496,142.15021367276827,0.8774614860469141
-160.94343827778167,-15.764804418358578,0.5965841814480901
-50.433182263919974,192.2973282271374,0.9793458292781927
249.12828231546422,-128.12905788217148,0.08978092847000829
100.84826446289081,30.23993555888754,0.20703366299245807
-152.4008984526646,-165.5138312408188,0.07641576590449706
-55.40187238617468,-130.7786641824548,0.912122351955456
113.240414050849,58.68702617737532,0.34607523611484536
-28.517037475982015,-145.84654476999023,0.7402416942015201
103.20990488165627,22.24246954395764,0.6271055383727199
-55.57279079926902,-92.78951115204553,0.5778044462125067
-197.23085376039995,115.88070037530389,0.5950663618630753
-76.61808166101213,-95.66942700370035,0.8498591163674534
-197.49634378983723,-24.141549242567407,0.38320840703256764
-25.835419776841857,88.18155394856943,0.6873493067191334
160.76517707811007,17.021479828200974,0.9430551935783497
50.68721048254906,23.498275567937803,0.43458225076223644
32.08289373002497,-136.57548736542896,0.8246511516875302
52.10000212248834,-50.003389234917975,0.7584238556288653
-115.02504094999333,79.51456872365313,0.09222866402255625
-1.3371202816768493,65.73930806154569,0.9567529171966512
-54.29977489713753,-151.14358005300818,0.6345861317701552
112.95621371224055,66.54956848040601,0.6494143670140354
-125.87378608920699,10.014374488932518,0.6214371611904184
-40.38022174323122,-125.25913324226185,0.4539147607520836
219.3449926917062,-42.54440873349032,0.782808240299552
-14.641100370362553,-43.46157092263737,0.19541678221195147
-68.1990612522794,-167.01398663327114,0.19458511765566988
41.41571437455418,-61.932560901537556,0.315804810386471
84.28963438163962,-125.34182898676305,0.9803977464829788
-23.234968830041844,32.74422214492159,0.6530694753173028
-43.907109240376876,-75.39734975383851,0.08948101146000187
-108.83987935578372,31.435644669949042,0.6127855475398116
79.42111157058407,-122.24359157184539,0.9801876630701841
136.14495919943306,-1.649138124391938,0.27707660741408335
111.08911456467861,29.98969494937182,0.04054067004198014
47.06884371071265,107.38185522646333,0.056909820127060695
98.4137951884871,119.65658810688338,0.9171894625508009
15.790113773033765,36.08960440498383,0.20249045063280768
-174.69028636214566,-80.96215263052444,0.601839936550599
-123.93609930077922,-103.21977757308451,0.9808879986929386
-124.80816686886456,64.65719150796795,0.017006992889518457
9.028845632423684,53.37988453238079,0.7922624645903287
28.01373041179535,-145.47465346261018,0.47242074390383326
-56.06606855394032,-64.82638109533735,0.6978556064536559
-35.62658539687042,67.79114620009521,0.5651387511845015
-84.68331596162747,-65.55925297702179,0.80481524225167
91.08597610846837,-132.96958013615833,0.592228609614621
11.292279316700933,130.3220208020117,0.9455982323201129
-52.499544188801025,34.73950467353995,0.9886741004398816
-144.8843638865245,6.224652853728842,0.8563184636747451
-28.25134531080658,58.88703874554218,0.03551648133726126
41.13959775672325,56.94784782172309,0.7284084199602822
-118.3628894260877,64.58087714314762,0.7201468914088438
160.8065710977577,-78.89547291629034,0.7360018053324514
-230.01367799606194,43.028191802443075,0.3827083973491422
36.35174836968672,-175.15615676243982,0.95140290635546
63.75643046637798,-84.4248540087812,0.38100316707850734
17.649085680490394,22.24171640973755,0.673962369776936
28.010046772971965,-89.52488949653443,0.6970169235820703
98.61057371231269,-79.76540721973178,0.7882630012182331
59.450039019292774,87.61874193799642,0.20840864967242156
-245.49777176024472,-52.65627038197722,0.4641369541595145
-107.02471731043144,-56.882859278525466,0.6995703989111717
67.77824784346606,116.1403030675118,0.8587258038854788
-79.13488392177956,-12.675836786856898,0.29401350581471286
-44.22614459940506,-24.509255608703363,0.672242741855541
1.6457712461693732,-144.9374648529369,0.9508153667025319
35.899106228351386,23.109515359847137,0.10957610753341962
-50.932198234586124,31.061264448800674,0.3695897606013063
-124.75726332340716,-70.99225553143084,0.4453618767923979
189.65563402171338,-35.26375181316082,0.7528987414399781
52.37551005842963,32.871123587139735,0.8157596186723001
-175.4279928681892,-156.16262310742087,0.7511995651382771
-41.86421783814883,-62.007538635526686,0.35930336258549034
-88.86153286436458,231.27745391146001,0.49130975872367866
105.79225764143834,0.8769219706852917,0.9347668887316732
-10.304357523418844,-54.113036315331996,0.5924878870827399
-64.8471586719136,-10.91206406615106,0.4518277529899779
109.6848434721741,-93.16447310249032,0.7974885828616172
74.86162379504151,-188.64132932963585,0.013297725659539017
29.716081942188822,26.806930656236045,0.3387997802464363
-63.776841058959754,212.4508172329445,0.31825909701865474
132.2881911230879,-162.7949892453508,0.8793579278112814
-234.14823033369768,-75.36472219157793,0.8530284843962235
6.0316086582667525,-53.80780659895954,0.2783336204741963
13.877265796969098,7.937330571624799,0.0011409447640361448
177.32019653100554,-24.045752153001978,0.8753072972267429
-94.088054786616,-175.93756927063455,0.4537904606398325
-361.2134908077589,-85.84729242401117,0.8259853511847125
-39.97204248711283,-85.88268539551335,0.7851431555309324
202.561611100031,109.11228555507357,0.24456654661551214
81.36676114186828,86.73487421507109,0.38886595862255335
102.05915109217827,-25.784164464767066,0.3235619940515443
-65.17522048672937,60.98908124200689,0.3769157637003512
-99.07721463790202,28.547041763616317,0.8240735715215431
50.4048120000587,67.38639782810965,0.7628528441631179
-149.49563003748975,79.78375610566303,0.08235970871033083
126.06156337974672,-59.70140011095806,0.29604502531852506
108.06034134401992,-87.63207316371668,0.3453373084159723
200.3092055597209,-16.958887699759043,0.43112492441240835
53.375477148925896,92.63576466385108,0.262873803443498
-15.707967885711252,95.4792233129275,0.7123134362315938
-138.20106622584436,39.11447278873926,0.5077786332879829
-58.21333040914304,79.74111128385313,0.4028741814790163
86.65561310431468,-77.51131235895417,0.5895088856473939
-6.231407530341785,-35.21315365514835,0.49746809157874083
-177.6456641081984,146.5812825681374,0.6904495867537438
19.506222596857643,-11.469739072126085,0.06156880745795135
-94.321682803833,-21.50167614899513,0.5800221776754393
-89.97297315150522,-34.76647463033263,0.9909962697364448
68.45927617893744,176.5983312457434,0.8218996282747797
96.92310917219153,161.32143515348267,0.4940660920855652
84.94759205268434,100.20842519564665,0.6646955565950252
79.12381071792252,29.913446574849612,0.16933287170892142
-106.17755184214637,16.219225015819987,0.0568047210655066
167.76829817057978,95.17980869812578,0.4183034148291541
78.69475778929905,27.60770951986908,0.6385534873980796
84.20135895449619,45.5405349139418,0.8691887901246451
-4.609013193109146,-34.69931378498309,0.36127043019155336
50.15709054833294,9.05757941685237,0.03826432057590834
4.981659057619738,71.5631986756194,0.11228629091027043
-45.53727016562611,-49.187512350914595,0.9675005255722636
-47.91802111570208,99.73389084705923,0.0983421280278578
-91.02854811742962,87.6869523423076,0.5260112331563545
206.6592113491625,-144.43677676939546,0.6954351878177663
-76.40775876490865,-144.65304472067442,0.1362199816595534
24.862534940368104,-332.37294872549785,0.7960602604371061
63.74335923800969,-9.7746781493703,0.3329132367163924
217.58620051993444,-101.27375182140257,0.8875215741044491
-187.19409482676633,-127.6042751593101,0.811808844900466
-28.304680420544305,-120.56986490286259,0.5706056406865461
-192.39979172607406,78.42162259239917,0.7123791300254307
110.79406036666204,-125.535545431816,0.30464799673015897
92.68331046013762,-139.06251446164742,0.31688632904409164
-130.61173798198914,11.199046254595544,0.3730981766632202
30.002221637987898,-4.341713945293121,0.13124305736686215
67.62602822744516,75.16680916997603,0.45494492711549506
-52.75148737359007,94.70377830358261,0.6118887159209359
-33.2434566184968,-72.559988081106,0.24879868159826535
197.70618334063474,-77.63590698485974,0.12035584028417368
139.5547081405333,-119.38522907383242,0.5402225432838663
-24.21841808110684,-10.569669635008767,0.9033957846751819
-128.44058038229127,29.23305495353834,0.6882556463481753
42.554465949408396,15.27290527545059,0.43282936939336614
-65.82048138727453,-121.27700101266332,0.9046105093477895
68.11193215307709,-94.24233478923739,0.8405759857743624
32.43274762524674,21.118973315573246,0.622559564311065
-132.83225564387752,-27.82419541818503,0.9536184412556122
53.48082931324557,101.27989728379012,0.2488085126379268
-52.90732849210641,12.685977006267152,0.1584501014923042
5.632757174331002,144.47703545182515,0.2696881081441669
182.08993920144815,-153.56562986409205,0.5533412676923645
-165.7264193290934,154.20521005224012,0.3689572855578238
108.08751766624287,-52.16444281828093,0.6422036831862246
157.60040131236087,-13.349408756836548,0.8402786672493098
202.8225240028434,-67.2156167056537,0.7787188809978951
-16.878944397379144,130.68024421041667,0.5827142438943578
-128.8550092076829,-78.19866347262528,0.5593394964446343
121.87975540814189,-10.152511974302572,0.7194732232398126
-29.31403550097339,-86.08620187957112,0.5450332669021666
-15.973117660995745,-99.62002394974625,0.046432359543789326
-102.23890077984848,50.69482933870171,0.5385490009032396
153.94390413168097,-25.149562987720138,0.5933252852398749
-165.710634632133,-143.07699343233767,0.3633002386096016
-63.05597724899605,104.5605145621485,0.35851700682392984
-22.088871461576044,62.59279347915938,0.25013123084495914
46.15659783098157,-18.109252607072158,0.5244478443097523
-13.912706897364716,-26.667877870968493,0.012538496081333839
-114.1402659450894,-172.7141273807775,0.5143105977405201
101.16206658455096,101.5669359373053,0.4425783924067933
54.71460214189234,-123.00335515108686,0.7870891352670609
-77.45884513231006,33.04081045520238,0.3749155292001487
61.231321967667064,24.83956370634712,0.16045661494502683
5.09530033500033,-32.86170245181866,0.11588277277511094
-95.58312813675965,43.00561829847659,0.028278892235780173
13.486965472384526,35.19034406169462,0.8611109566540279
-223.7164364905462,-138.05696105420574,0.48487988384741487
24.11352738985589,106.46141004553388,0.24538582248356167
-160.21821139845397,131.93496309514765,0.055092329280662766
-97.69381509024194,-40.412949013298096,0.9103318879429433
-80.82798006232508,-124.43512335532962,0.10438953105825344
56.56988169411824,-49.64049872080268,0.42211763558060766
-10.509676225789136,77.75236939048145,0.9664132508885604
2.833808053235986,-122.80143425750639,0.9153457243397616
-22.10345704991083,151.69980630882503,0.8394616993664159
-30.89538310512064,136.61681561705294,0.023663856420657936
-93.87330027399942,169.1531026725439,0.6280348835630384
209.58729769608718,-26.969906987171495,0.46288861081148447
64.14029556185945,-64.0694680735321,0.035229193788108515
266.0187269508307,-150.80834248037863,0.6671308011620047
-117.03927077876793,-186.32897969784935,0.6807316970602586
128.02267170968025,41.35271456087941,0.6380764007919193
-41.31353020002824,88.04788115813909,0.8063522766998054
78.26276663751052,-84.50268047792856,0.7052619087436988
-174.31863165836535,130.3010534732328,0.675403973611535
-65.22518920401146,-72.5766771689206,0.13528673160597215
51.801090847518324,-152.29605106960764,0.3679828632662401
-74.32762137101005,28.173368138466188,0.3759813248729075
156.4671232920873,100.96278726347275,0.942246968777438
-171.97861706095173,61.39796635290625,0.12744232422735013
-60.59700141707752,31.042147861783054,0.7302173664175455
83.71669230139653,2.5510576407913312,0.24318182919850195
22.670023107907802,-175.74797990122568,0.8290990018641934
-49.38095177571468,130.89171579943456,0.7387510660533371
-139.24710089630963,130.71918183429204,0.6108739453043757
-125.66947946064133,-102.66922102455041,0.39968335804945465
22.633507613062594,47.25534388332029,0.6444396361655097
-165.90286182626818,-6.367216012375416,0.49767390746978324
-25.89412626625796,49.55446713150607,0.769069869787905
74.17200017706075,0.9849564999279747,0.15664591854094712
64.57165966629246,92.61694211422899,0.35979502388016227
-46.351782303434916,-38.450550992603944,0.20674289040873195
-86.01733937517359,-232.1813694641839,0.081926651858235
54.84954235556199,-80.07511283099082,0.6110911781119879
-111.58481961731934,17.116214263505686,0.4770782025977227
-55.76286304688588,5.766130554919385,0.28887977347493576
-27.891252579026897,-163.65825165226016,0.48543564665329086
97.00354835901015,18.226058441105888,0.6741950330137232
5.206599092034225,230.78481659422332,0.6180434551832431
