-5.4541854714586755,-7.0831938640929275,137.08641746520055
6.679600570462201,4.864041777534736,134.45547976261398
-0.13591215465458692,3.6446033890137652,147.86364586803546
15.236612326093422,0.8365684132569796,59.265121167083244
-12.524408463211735,-10.967545049869338,131.9727252070274
-0.1987914349984822,-2.1309050428034735,187.7431555974395
-13.839227712429334,-0.7934776164673427,61.33494511270936
-1.635984206560603,-3.2598251630449466,111.44354520198694
-10.759627689840514,8.196295162008784,96.87094709387583
14.335338110919452,-4.099474129270182,171.8602476020995
4.229350437696567,6.40300599672218,66.01073095149165
18.748561096392454,-6.2390195503926025,100.70068249398093
0.46527931325158844,-15.558390088771205,101.77623924060353
3.032369392840576,-13.872553582655899,53.972139567708744
11.222422550948988,15.881957222770277,29.921600454413987
-3.350075496314864,1.9321849530233735,110.3073618192312
-9.586940025582603,-11.945792912831967,118.38713875091884
-10.121612806021473,-1.88168162635254,186.76498726967662
-13.828334906235625,-11.256182052328938,160.5386678936306
6.135243544058648,-5.960255292658641,84.91943065288439
2.909635598688999,-4.149097505125859,47.459598264431804
16.443684524621833,-8.697113052954874,198.36155592273016
3.847574593421203,-3.7110314903452157,41.76595715004006
-11.908565980532055,13.063345282236998,189.38726926702037
-12.870108267207364,-8.130259360086988,75.51565579767976
0.40920601463594497,0.7142431268372215,161.86062020757456
-1.8164379931653787,-2.627103632745741,177.92584705341326
-1.2944985050524715,7.256182262830544,134.64843142757655
8.606734299764296,-6.780042375445881,195.51817613324343
5.614491657199194,-2.1717052228412235,29.228590182030125
-7.460711359526032,-11.830538266056864,120.99719369288285
-9.7332747282362,-1.9532486891144607,112.80581864057557
2.094052579493275,-6.874547637837996,157.68176751543268
1.306141327823966,-18.784987935567454,180.87061663176755
0.5362022329824424,-3.7607030581404293,94.45001922789487
1.3870304352740166,-3.0405609663730706,131.72387422486136
6.6984317815468035,-9.230386320514677,17.45445016562648
-1.4914812891195481,16.544652349931802,102.89712743766964
2.149218392456971,-2.221876168080147,108.16264987492352
-0.3472082034210785,0.9743825144166829,132.089034233523
-13.88619458045333,6.854427948415292,124.94273050329467
-0.4213028697787716,3.0543578090681947,127.99406191049465
5.741608878496669,-8.955388160416515,171.34034775597078
-0.023549036382579214,0.2803626290400164,9.909194337849803
-17.15241295201139,1.8192677117152347,8.805105032152415
-1.7268115946814435,2.298591653873083,155.39016329788268
-7.064580827202559,-2.2427185674921115,48.34260998107383
-3.247548344460325,-4.588844073860534,185.02839012669554
3.3181453201142626,11.343286034011705,62.1669185323813
-0.7878392685120567,1.0073055343537327,92.66642894467721
17.383094105955244,0.8390173976536459,44.33169883399841
-0.4242032115576637,-1.5348926496407038,122.1414488826662
-1.053435857358916,-3.4516228562047795,145.63690554249837
8.257981500756301,-2.761180438638129,30.746010183120596
-9.93697448240111,-10.735071852457342,191.77019018939743
13.08660960221336,8.782256348390185,150.15540379844992
-12.764872009118298,8.993923145762931,65.49537710300075
-0.005035367674839553,0.006666052392040327,109.21724983656117
-4.250936450385022,0.5419386291418877,22.852465382330212
8.705208110719617,11.347700869626289,111.49436059775104
-5.496323968377642,11.080649767708982,10.48823302769637
10.745765225524936,-4.164833396817834,56.66532788983651
-0.33027832459358364,2.0724231488030127,80.31330400468197
7.989167693884803,-13.110112760625936,181.82556497929198
-0.43727374118201845,10.195531820214308,18.809854692332472
0.8312319490053561,7.6790446399631405,9.035982358252713
11.14362354824317,-11.455685269589528,120.71020206611875
5.906310252202129,15.85836650969016,172.56094906217632
1.8211282371898865,3.076761119198435,90.2605650243446
-9.752143679262844,-6.826678961837321,89.7566348570618
-4.149309897782488,-0.6999735610172527,166.34621940955316
-0.9540188200910902,1.3110883332654992,146.25960639274763
-17.211529237786714,2.794118961076478,78.57691191598587
0.7344058428815522,9.888825058470937,87.96343695024011
9.844176340013343,-9.126953829594406,12.155310158783262
1.368546204025928,0.01562514950391476,115.56774755274672
4.4593326517610805,-6.93418984670595,186.01166341305748
14.54549328578228,3.290100527741054,166.2015295171497
-6.390286000594711,6.338344507607762,36.259170295561916
11.043523344314062,-3.6798789392721947,126.608568115999
3.915871985469527,-8.034832392629081,167.46366251173657
-16.613121636861674,2.6722962041495943,8.99671614266957
12.544728965288009,9.822507499836249,5.045829046236405
-0.8002832555731396,-5.066262887678436,58.681676882251125
-11.629939549418435,2.718698369236734,14.726708244320408
-1.3820878142379733,3.3288333983241394,170.25573816080777
-0.5657716546206776,0.0018837416626605347,6.053542668058776
0.11693893053631259,6.894365392416126,0.7858513927188282
-6.829646404690678,1.1496349269099668,6.198472571320157
-6.753021295157261,6.018511898617935,149.91236010015794
-4.507540526836955,9.227974736352918,99.89782190486774
5.1959088365098935,4.606944388964537,141.24754671431657
-15.046056849218203,-11.310235357831925,80.09258739403742
3.4963301465561973,15.065870149773662,38.79596459741099
5.907559922486412,-0.9308095085718696,161.34723387281238
5.568343580669117,-9.80073081842693,110.15011732098188
-2.5192377149857217,6.05981777249591,63.385050244016995
1.7350846908690591,6.680705372374866,167.4761432517434
1.8023574915879959,3.238749517342113,135.25346956629184
2.3594479585837207,0.36782050551884876,195.70824149791878
-4.175053351559002,13.706115567835122,163.6859846360688
-2.8312398174897577,7.829793888835209,73.95599602053512
0.2580400841331974,1.112264708270276,83.16206137539311
-0.7679806278707589,7.860042842835907,91.2164205002419
0.7595687887453368,-8.759830045984907,184.304868288372
-1.8629740363641016,0.646114518770224,159.27532627687654
-16.0023288369255,10.808282931198221,165.71750807990253
-6.353258591711859,-0.872539628391379,137.0584134034073
11.776925578655367,-7.43304914107717,52.903588688820946
-0.16897768779876318,-0.007250894609638156,188.69077581948866
-4.6817359623713175,-16.4222870247387,170.82721048444932
18.2760478612923,3.9634709543072444,78.6040061804925
-3.816214601872509,7.895701621539152,96.53953030109237
6.300097799145379,4.9486309491405125,165.42052167677267
-17.464970323946684,-5.1942494642147,191.16613810145506
0.4930277695594435,0.9354132562568245,43.562997894582665
13.058351854639868,-4.9000954830388235,143.94807988410741
-3.3295068520368316,1.466323877483513,20.3835166933634
-1.3495527211585632,-2.057616045283369,37.9685262737786
18.33640174630849,1.8541223673374099,33.92409954773481
4.8661424635638,10.503977948224158,128.36271168184334
-6.3873145640056075,15.476617162320641,174.59341217462313
-1.4830009406567295,-12.897400598840505,124.32843643253247
7.789068290164888,-13.085092814028256,15.879655536929938
11.473740231073387,-4.060788805808071,108.29276227061942
7.003037945959789,-4.106332777409213,156.29898119428302
2.2661214119797357,6.212863108571141,92.45983430459543
-11.605642866198238,3.120937788936015,46.58967978217221
8.213640059264572,-2.561177073948646,8.655633356267511
9.639189186358724,4.845341478628235,192.5509261875273
2.499570045848148,15.602258303854796,176.3319453780072
0.505918488407636,5.045038195990531,184.74998819225198
1.4545441274712057,-1.5737001818344638,87.34471928431881
6.337567591148741,-14.316209613502597,35.61862851404942
-18.126362759470968,7.429468467878919,57.04481118168263
-0.76711290043834,-0.3602631799722251,60.04055049065897
1.3711163037447491,-8.819061277530713,108.51587965878124
0.1384873618248567,1.2323204527788476,51.90407318898347
10.172721045586098,1.4741183568592773,136.49601735595434
-8.000583782079769,-0.7483176453492407,140.26310668679676
-4.1738711070673755,-6.995074062024766,69.06252395815451
6.39516962493617,15.87054418536382,75.67036793078886
12.77345555911446,9.96445324137015,27.76910714787526
16.755864032069436,-5.766499586091624,181.89687099757487
-9.307040672364,0.5777708392671216,113.32639211966075
-2.092837287593568,3.5532978354068905,95.10722673537009
4.177528959658683,17.300894593889982,137.17459504989898
-1.1823471629116866,-18.442549630151323,1.983355212293958
12.505008624272858,1.7557959839547286,49.86066389209791
9.071729209221957,-5.5822329796370616,20.900987189549603
9.807674087944681,-8.428275164022063,142.42838726952183
1.0184016440668995,1.2067885964979383,12.75005885215843
11.33082800391281,-3.255935171065295,83.88106452529125
-13.087831630261126,-4.2874553132014075,51.36759870803531
-5.893702082575693,-0.18549679337680358,193.7785490546858
-6.677057692665936,-12.979413227924903,170.8207960532145
4.542796811599791,2.6524765535634653,0.12722082282714542
9.164161772829782,5.090441256463325,171.65326257111144
-19.127864210812305,2.0696380554515708,114.15112984164651
1.6078221545334601,2.4621428072148603,96.05611167926496
-5.1739603042053615,14.989916083149824,113.97018075654215
9.095607738746214,-5.764454811874186,16.333778413319557
4.409036638340277,0.604997834683607,5.74833198162934
7.072220793704602,-2.627603539697016,100.0609535144523
-2.157194031016157,8.299235579020948,172.06597447929002
0.9274077016443506,2.342541724031422,32.55342023447869
0.008145314770630432,-1.704336357942866,190.2004287894549
1.7942551615301137,-6.688744541099077,154.7652791413355
-8.881699468771334,5.954318926228884,148.90014637812862
3.864994960576458,8.014253478831844,73.945286206168
6.627320867441982,13.114978382955075,146.05377861291552
15.068513623689896,4.182004157444823,44.20020718183295
-9.774823698730518,-11.936881247637487,44.22795270927003
-1.3818153909308517,-17.396004628840064,48.348068148984716
3.3126065181779425,12.936678079487617,164.21950132252272
-7.9774517301148995,7.159451434720738,63.0188970105757
-3.506880855687666,0.7856395217246268,96.11252015843527
1.442596285361218,5.098733996722336,31.399606684136216
2.148001003635714,0.3734815564107373,118.70347649292574
0.9216151868219686,5.061469877173253,65.53551807822086
-11.047114272324553,-4.8478617529563826,97.06112326255092
-0.3315873480446336,-3.3852399868317913,68.65888394151996
2.4424646127356295,-15.326029366052815,6.629105523688272
10.930075262596088,-0.7520493967997465,61.172217653558846
-2.1257821941069945,11.66944819495097,89.55183248832512
1.5623726164064122,-3.2460323224741026,135.75918531485755
0.9669076951408794,-5.846837779632808,45.607454305840214
-2.9063228355110837,14.944296887205638,156.5172574449654
-10.26727859331873,-7.036516599399252,112.75972313332569
-0.0591408079730483,1.0749728195519264,125.94892377294606
-15.703035650368273,-3.026588812941866,27.63820884103425
1.695714826653792,-8.253168998507595,81.09071426949102
0.942226954069102,-6.461848812784388,25.18548673865717
-10.789108178261602,-5.278805478598457,40.602459003110525
5.790917652165067,-12.456477216951066,92.5606738261647
-16.904966736901876,-9.925432947548904,166.85099789344352
7.880253319454255,-5.838569884449507,152.60689431784314
-17.083189492900367,4.504566132425278,199.17382393798653
-7.2390457421147785,2.5978618728314604,111.70130011211728
9.546219148338903,7.963450114964316,137.0788824788879
-7.314358753119774,-14.14298364686706,151.1218391360002
12.882457200961573,9.02872475733303,130.58382612567107
-12.160213310966492,-0.8650963635993155,131.54173867686492
-10.777622363596565,0.38022911865137454,16.49958491495529
-1.9130478567843845,10.921372536454038,154.96644761096783
-7.264809683701048,16.094318579390162,74.33084108615363
-3.7169499121994543,-8.514309997485286,13.184271976983641
5.686724295080419,-3.037827458232223,118.17806143509635
6.501931686745757,-2.996743222616983,199.5502881059736
6.099667701223762,-10.662089493040673,170.88559695076947
4.588149110575246,2.8683492088122624,69.3199975866053
1.1895320516182253,-8.108341126440752,148.88223402586215
11.86235073192146,-0.23527361822085985,83.50381915128122
-0.5273309132390981,5.4932349526581,147.37763770682864
-0.053163689612381174,0.019759089274820892,7.998837409130499
12.595200875081224,0.504727533342289,15.392924276599063
-3.169024284431473,9.990600996133171,32.71360068677345
-0.4193830907448761,3.1751546478060093,78.76164583150289
5.211423220416184,-2.1907292465875448,42.96325312975251
-11.02495128125002,-15.54496132681453,184.59515846547924
-2.569584022410336,1.5839323240701704,9.122670993615568
-2.2586029842032715,1.103258001501811,40.26392902548941
-8.611587317602993,-3.295851753932826,116.20610575894482
-2.628550823432525,17.780359451298967,45.39545074411815
-9.483303596836448,-1.9851567112676958,118.86759055455013
5.668368793252344,-11.496505224720568,160.09314595002527
-14.254052612062557,5.7055955461072365,139.46719819131812
-14.785109165252686,0.974003103069451,76.55493895932118
1.7489379867628518,7.380554223360639,160.874506329199
-8.921953068742257,5.909888094607672,182.73025232415975
13.63998667531491,13.53632666096888,67.82775344519216
16.03947316899058,-6.365227951819692,18.9096651631258
-11.089941409015076,-3.6524809390170727,21.157839471355523
-12.811729821798432,0.9449563497127362,195.39807249472116
-0.054147799146879456,-3.281682059599587,52.1242678025297
11.26025204276001,1.5313554378005965,179.71761617993423
-1.5023254217186324,6.670311354474779,74.471369591985
13.558398890871244,-6.327057641822853,9.027757695739735
0.720524718138544,-0.0290796253725669,171.32999826975575
-0.2870520450950815,1.0669584754900023,48.260613165334185
2.4925795866094074,2.382432449326976,73.62912913276989
0.35267522838375137,-6.351407989519029,17.041046988567366
-3.3532426762044443,-10.753484880194238,167.23620126721323
-8.166910114299265,-11.618167024322323,47.509322994927004
-0.3227201750702555,-0.8488150657007543,2.5173076906428893
-5.010347320290609,-4.633306199020892,91.05680202558108
14.198213230096151,-6.95774565209497,106.42839534904039
-2.661562354689361,-3.610748830566425,36.97501699121124
1.4470948849622227,-0.9155934635883846,165.4451122939028
10.400390770852567,15.830776238139451,108.45264424586381
-2.3343827084460145,-0.2124755014349328,57.724018818596946
-0.952007183795919,-2.2645862577284057,50.354265493292715
1.89604536387452,0.5406631393783176,134.8181935315625
4.148840904231646,11.976825405849029,25.988422189675187
-6.086504614441777,-13.635711526169342,168.60567239511101
10.419291937341344,-4.4193999133114685,124.51825523127087
-10.512810215879815,5.278544842816761,31.8788536911889
-5.918508768904052,6.804740545625976,41.42981236975791
-10.518769305390075,-6.370838506510494,113.55364645249995
-13.260485874240741,-2.176462562926738,14.088492760222993
-7.811898410201051,-10.984347732846434,2.288918002349094
-1.2243771873465166,0.08275897029678583,163.37769288696092
-9.832798873921485,10.509379598283083,96.85414055472714
17.6879340427594,7.675757115457388,116.49708257388471
6.931260305033012,1.2471476997060615,36.71749029120159
-4.400771504950316,-9.851322041898213,197.49891985488512
15.2250297611454,-12.245430937255879,138.9991307778565
-4.97531810997723,3.2304649486835637,19.663005454551797
6.031805083747653,-14.495919281238974,94.14838874807965
10.775797064476516,-3.8299401971073115,157.7529316215765
-0.8416202646789264,3.029870299278045,128.75376157957183
-3.5258747346400727,18.752623951139665,166.592505536492
0.45758071520408256,3.229424819978706,88.63083804215177
-5.789043820029,-10.342585794945233,188.7112240048197
4.043707617510819,-1.367338330375732,192.60978508059233
2.365967958641853,2.9660575830633973,154.33135834149329
-0.24118599379777445,0.29887693551522154,53.044981116578626
-1.7690362954134162,-1.1915587407521204,118.95019479368712
0.35705809903623187,0.7741599822730446,118.36895075019795
-0.46920330172843067,-1.9614176531996246,87.09411402769076
-10.052589036624862,6.151904066811604,17.49869040748795
1.829497264986883,-7.313934637224112,88.75837098245864
-5.885273455700874,-8.893421177329143,43.90279643542308
0.5758487827220415,2.2400329989645407,4.086760409681611
0.1051726442152127,-9.409578420469451,134.25249336770761
9.255850350272468,8.238196479982259,9.609471463859265
-0.296079288457889,1.380345812894027,181.1476447364511
-13.111388595077521,-1.8744379949488401,51.59915050540389
-0.7009531837627488,2.74592998092214,167.02758258878995
-6.162267375479403,-5.96437323813759,183.22603270189092
-6.700022002792794,7.642351437424277,104.58400957241038
-17.512656426590127,8.176754083565982,135.2268380495989
0.02850510168727568,10.389584866109688,109.54185997602615
0.24387585918519894,-18.765369680025746,184.18534449396506
1.1478203061833736,-0.6963960328168066,6.6021659074563255
-10.030261019440811,2.249220539208918,92.71045826173365
10.373497506869715,0.3376001898299976,23.38049437518952
-12.610436179993174,-3.1819679184588425,8.496871011366846
-10.311042715201232,1.5543401941742672,25.963564724055566
8.492081293542734,-8.979598126373912,150.90939629913234
-16.15711688839663,6.855695621089221,114.81027453424943
0.7630905360373099,5.3594357195032085,62.81578958852403
-4.313473435414535,2.6958722795848966,49.477867138682456
-14.015582682688944,-5.448764228032232,197.301309082265
11.67443895349731,10.299627612688086,151.49090812027413
-1.123761526036859,-7.882255158214711,76.61891237022004
3.7599649090861464,-2.42973080598009,47.575632567063344
-17.853011741561943,-3.069198879745863,198.90517561474044
8.174060955105983,-16.13208959435102,117.47259811452658
-0.40141175848759597,-2.8657458680995114,120.86249532720252
17.08910332813077,6.599054715164109,81.86373519461327
4.591192039292822,0.2820185165298105,38.747221792667766
4.487615022488524,3.3422872098322873,91.83050374362807
4.332089133562719,-15.522302359112294,198.27774240317706
-11.237951497996063,0.7102227484647629,189.44660317207385
-7.559479014216379,-2.9291313250580626,108.7437412147408
7.558098296556237,-16.55596098904708,111.60656076108724
-8.826711336151783,-11.465777937246315,68.69003271067271
9.21647922967793,8.26478462378831,75.74847385790122
-16.629726901787002,-6.768194966830227,161.15425168110363
-11.024626901978147,-10.450166900227927,74.62801301055538
-13.68758155862739,12.380281249200525,128.7071349919962
-0.3293555928829238,8.881083738676585,164.42719803615668
14.914456367178868,8.527340361315387,185.71714967446457
7.559347921928138,6.0064856470038945,13.365765193741685
10.43209639928404,6.717985262378135,30.703211819854182
-6.768085307554269,13.402221420694673,14.384469531707666
-5.009100783305268,-12.863056647388039,147.47635250314977
-5.770194818614223,-0.7057352495915081,151.03417070436032
5.605212165740368,-9.840849697045776,90.87597555533205
-5.728025334282922,-6.571310497369721,16.870227702198214
15.76947485966326,-1.4242826858835262,108.08643583516051
7.9836369214362355,9.101669990356132,159.4444916200619
8.631541522477375,-12.205996892683679,190.5073701764858
-6.786797778098716,-2.6143130095371676,73.84069536770221
0.036284513701992475,-19.15335139068483,1.0657268902643624
-0.24511232960199236,0.343655807196678,83.75752171153967
-7.090669725677917,-2.1999998318311733,100.14090692460857
-5.443756663867472,-0.6803842030286719,138.7146770924424
6.832831741246937,13.417609100848884,52.90945963262561
18.759150246830078,6.19371891988468,57.405580489223816
-1.6687696515213508,-1.0408590163982043,184.0142977462272
-11.566898277085858,-5.56741041442948,183.31386997246233
17.310517174071354,0.5153223091702015,97.70722653184198
0.9071517737194867,-0.9594564868241886,58.49848322084965
8.547161607287304,11.784276046893968,171.34483929753793
-8.965283394590582,5.604750084614839,30.696336017356394
16.160047404946898,-2.4496914498746594,80.34011367375355
13.698824860947141,6.072743815017744,53.72214497061252
-3.708873773947931,1.9529873896770467,157.43726425311453
0.25039943393324576,-0.43658573943738843,177.2942634924929
5.76794020638088,-4.9884785069928395,157.31045755512278
-8.155957808229,17.59861228896369,24.055882411397288
-3.734822449391394,1.6399672839490842,13.11644000117058
-1.5807972712847105,7.072460155602066,130.59146610099458
5.619923898712089,-8.968099734728964,15.374968198944106
-11.463166336933757,7.427865552660396,188.0684249638524
-5.7183290366764306,-6.735656651701455,67.20953321741645
7.396800479330631,9.745233890496902,8.956523905796331
3.990512738151571,-1.9812282472210831,7.756390589653694
-13.902674162063784,-2.6019937125719474,7.341515372121377
-14.508967614997625,-4.755655234091914,130.8324828682471
-17.01229182053967,7.3112580006459,195.9357343537404
-5.790919598438049,1.4005436807272458,113.70303990821289
-0.9607486867512093,0.6926124990042002,102.3568531067197
8.942110772636966,10.56502616929057,105.29734155339585
9.583706176387398,-13.69832668094216,21.605394661296184
3.4833835963016657,0.9689124081142882,0.785440582888719
2.6008210305356614,0.012590062059686132,180.9503625094502
8.513544346508418,2.5780717041663737,149.5666116031339
-13.022663895374679,-7.36099634033997,111.84371158512852
-2.74849106763105,15.755324443873103,139.19822066381093
-2.402491510858063,-17.545194426518094,34.75966594604891
-12.677156991513082,-9.853218513837431,17.93788508739478
6.066642838306391,-10.5680099451524,101.82352077710412
2.9298473313272524,0.5280751112285473,89.10042779832526
1.9097847056861739,0.4258294647486044,98.85039398695832
-4.583926678943498,2.5919151871579733,188.17445621171302
0.26451830615399763,0.3006641318052309,141.18136807076237
-4.632933747348999,-0.232580089894295,150.30689345946158
6.900862977230398,-1.3471839416571896,82.39581725023864
-1.1389486664207211,0.2795083143346503,82.68569327157758
0.04737055303026414,-0.11690935861465374,117.91834044011141
-3.912403542444253,-1.9263273564766086,123.94772310694302
-0.7152269203934766,2.4000120788497874,133.94191602082188
6.285419691404668,2.7075503979862683,187.19535525608183
-11.517322497056659,-15.216543929719478,96.05369621631459
4.049160704739099,1.487432758284912,48.40407336583867
-14.929471103045094,-6.922417499464984,182.1511104373856
-3.858186090028712,0.3795970346730438,153.29997636173874
-4.919942468941291,5.052639159903839,45.96781000516865
-4.412595676558297,-5.852224231109029,111.72679657380814
0.8544544791432932,-0.10486983518629127,181.8841891713749
-15.023398181473494,-1.2754702603088965,40.281512880964954
8.561434373122829,-11.09547214191432,147.4234671838235
-3.0380127037185702,-2.799535460140515,191.9490843817691
-5.159029345248159,-3.062860045001396,144.50302296640183
3.069146121911161,19.592511736308232,108.00306586601909
-6.962024349486582,3.1134895653749113,81.37904595966444
3.143058413083863,18.56461791119078,120.73988320264941
-11.70652705693593,6.0694863468444895,178.80256946857241
11.737270344663791,-10.342118926720557,43.594577661372156
2.5114143211321025,0.5760906461389678,98.3567331890435
1.655566755209947,0.053297867593506146,195.2545164843371
4.6185826437727835,4.812315392313293,112.25693055680918
-4.016288294463513,2.188306708199742,184.5291653294624
-10.96849321103109,-6.604256368663838,153.72994544104506
6.2957668704243055,7.959043861823092,41.629272285399146
0.9224899180248881,1.2602222574419664,9.652134539306555
-0.7195306017926674,-0.13301465409367158,68.57407550486805
-10.916326089608406,11.354444920746715,20.948621279535363
-0.6513015410976657,0.15257531753812206,38.68615738835415
2.04850292760637,18.32817895185432,197.34167503932917
-9.719274005535594,7.304635860421814,186.1610174999695
3.945660313836287,3.518903337599452,17.37016135620135
-13.259593426417858,6.56260985698441,32.49825638007795
-0.9739860634487169,-16.311219837249467,193.15346281745872
-2.0508144814668414,-3.7912970977934393,185.78184497867153
-14.757870001843314,-12.621659797598436,18.614666012896762
-8.537329201760045,17.773434728981695,29.506412967182282
-1.0266316526241634,9.88585959655691,145.326708277015
5.445443759466467,-4.296324246734215,36.46009235725101
-1.851049920207646,-10.260665563098165,93.30738735719586
-18.35164400053077,-6.928687174633439,57.786290845962164
-1.8716734128078658,1.8212946383062336,177.27391154780153
-12.249290661547699,-3.6521966277226086,114.07339042194648
-4.658133245004003,-1.9873928793900162,75.74920744202988
13.523454420678936,5.456007348123737,67.93802628800489
-0.1258058102223606,-0.5230801953914992,144.89191388447432
5.018485730529273,6.0121504045267695,69.49335551057732
13.564683595365855,-11.511521136876592,160.1342207930023
-3.6692029712319028,0.035960896572461334,60.00862455143891
14.984927202854475,7.062672248930745,181.06022782356223
-9.122010629855557,5.1906337139634555,128.97111417141483
1.0204184457724543,-2.0467847705692446,118.23918181830615
-5.34780473389424,11.633461101041336,193.92255103949802
7.374074637533993,-3.595936439167276,52.68726813105473
2.9141942675027344,17.07521043667877,91.78628867401042
-1.8455085195167262,4.164894647928335,66.28965412491745
-6.327390627574037,3.8975950338229812,59.072798482492736
5.3995826786520125,19.211149805556346,61.845718502152415
9.04625399107283,2.9766098855731022,134.66712176838513
13.325287742752696,-5.678829692893753,163.86993576368215
3.322481527420788,-10.738894034868423,48.95682341464074
-12.939611336968332,-2.1534082619246746,106.97237451777369
6.643387144464847,-1.5936272346831193,140.2839648911012
-6.196890749431407,12.84080560958572,28.997689725138276
1.1808020737016596,7.758457033421259,122.3094719529731
-7.487496092854063,-11.020172833596035,154.34401052165214
5.294476723271366,1.2748038881182426,49.88883882172406
-9.266701488154808,6.231187122715105,16.043428978274598
-5.33380679720251,11.851881570629173,97.91736811677944
6.546577102212188,-4.4418510001026155,164.10566567811935
-15.50238829821024,-1.9734535537315951,66.83678043772281
0.03170918177059264,0.1872841804207839,198.00229339490446
-10.596191465072454,16.867830591235826,197.75477473403683
4.167960064705524,-8.507818433629206,61.19615555462126
-0.6810100188066752,-18.70833415158609,24.277446972684835
0.00678825566849602,-0.16442051309009523,24.817563319176994
11.272016421651342,-6.948538055726513,77.63392695482591
-10.89293052483055,-7.4145698634739965,192.53057087842288
-2.077483174991936,-0.13067255321029927,70.42237102655274
-3.3544133279908723,10.638656343265207,103.21456492269998
-4.600753093305318,-13.230916357032873,179.16818165259275
-0.605610083730376,1.9392263729906571,35.28778730338895
-11.933857946389347,1.596649500459925,145.04760108679625
-1.0290858663177775,-8.533632891650054,191.4752085208071
11.273084908480818,10.352072507777216,74.28709630816834
4.1141133481748176,1.7567029707947532,55.429111889997614
-4.823598098956021,1.467981976413616,163.3917100924927
-18.843303341516872,2.038651880023578,154.11117815853947
-12.180568016162297,-6.364310835926298,46.24801119665549
-6.999872136770691,3.426116797848664,166.649747345815
2.981885874020722,-2.499497256443146,104.72047035008163
-3.036160451355855,3.5183860742564392,178.6328160484513
-10.725055500025578,4.956929315468727,48.712984817080304
5.711709292397909,-3.4106634860224885,192.3453337248582
11.047830598926858,-1.1145928022092584,89.45660042472632
3.2781167390273405,-2.5145398167953203,39.02000123937508
13.931076966244785,-2.0662173922261924,153.02693278371308
-3.1238575690308834,-5.415656051314769,140.31942745864333
2.7846124654026716,-14.406349103816865,68.03444693431415
3.4628951109254045,3.0408289311334538,41.5866830912343
-4.631492502769468,1.284001872907893,25.317242969410046
-12.57979432138924,15.5449824785338,8.984477667199853
-11.522799575273666,-6.877326952639504,76.09541935008257
-14.702302741847927,-12.589217672201203,0.2697587288874814
-4.604924561093401,-17.811257249488886,55.81198968464827
-1.3562694890064333,-0.19748244876071003,93.96122188269764
-0.5515857905374325,-10.10523879640838,49.713432892030426
-2.2736887164613013,7.373129443031904,102.98942352254079
0.9471419218444579,-2.561925520121807,39.06268540522335
10.631640603729418,6.146614376997113,89.06411918583032
-0.18328367879304522,-0.8977033709512915,193.3512632235569
1.2005293282515617,-2.854092952181478,175.3450721458842
4.9101830324985505,-11.093163412959012,179.5127199381689
14.115642342523696,-1.5527879356767091,73.77495209372836
4.825728370872574,-0.46582243231063764,10.195151069969954
-9.168044453435995,1.1209012200608415,138.0450751110977
-0.11729279858747431,-0.9028971236649663,159.9121056998697
-3.3143935367577586,0.0949593614313245,2.699226718776293
11.741352599436903,-9.923358356313603,97.4513980652407
-6.071373616244601,3.1702417530283835,161.46833570159757
-15.772236966151482,1.862295055299199,16.076993951256547
8.342661294637272,3.9289108337748346,16.12595508587027
-7.6755986494824775,3.9995387598742886,102.5429247068024
-6.942862977132375,12.842314289653652,177.2879813491084
4.034506447043192,13.530458513011824,73.62314696507988
9.204645948931834,-16.16673630326132,147.27171755068065
-0.7182863759907206,16.321566210629197,42.44978763291649
-8.278711196322085,-7.36516283719349,185.87465025143763
-4.98252890554122,7.708727884666332,96.61967500202391
-0.6863720599329296,1.3986662031484827,101.05643701686083
3.641322778381401,-4.552442996729624,87.19078906386004
15.782665110603109,1.8993034423992432,25.135597054086944
-1.0338950212286566,10.651132018617544,196.10469092761173
-2.9334816656108895,-4.019017950253975,66.57811815116999
-11.67833420850815,7.100075877168182,86.26734725634562
13.034364985921405,0.12484707457182351,165.68933436529974
-5.77400933341846,-2.753617416908753,3.3300861771234924
-11.800708147532022,-12.70837445503392,87.70825744398178
3.006643223721274,1.6471858885971735,184.9456245580671
-16.940069940401212,3.945419804021888,170.46799451575242
8.75300860700515,-13.951078977950258,122.96727137554994
-19.042452930798447,-3.137310026752003,72.07110781562922
4.927853011821648,-12.422778578818054,75.13482714546167
-5.478192536978303,8.209659284444577,82.36523808305269
0.619768456198553,10.320609654827317,117.2317038078162
0.1936897744489756,-0.4031033247907979,186.99606825354232
-6.120176943351693,11.661041298178572,21.602669915907956
9.526523438396735,-5.525204231108088,142.91855794098538
-8.359438377745787,7.495208872275678,127.84646150233607
-14.47487758076187,-3.048861780103917,158.7473447655382
-2.7260911021582,13.071722462741102,68.49254579988451
13.478378053347093,-2.923788359766064,137.19829637563393
-0.5605510226336707,-15.419963400115789,74.18014452008417
-14.926328979569107,13.217304802996562,11.670941533604019
-1.3613118578148635,-15.633064380292133,25.273716502249787
-5.867800723012079,-13.162348438198768,67.21311701101604
-4.319948960425946,-18.68868525107155,199.52763256574366
7.477014735689349,3.7659981920891137,48.179032430760586
-1.116900913743848,5.464807757235487,185.19667100368343
8.574721511931855,-1.6564294736121485,15.812503848378178
8.43626258732138,3.5070959279998406,152.94407324598484
-6.16995821090914,2.18942046020785,117.5864694692905
15.098697319476798,0.24552157342850564,36.69852078424112
8.938008324121833,8.304097155564579,120.9571015935364
0.6545008200571297,4.44776712197157,12.367461110758725
-9.455098340287893,-4.96776815557417,145.4731192927011
1.3332461268170595,8.711801159938826,5.066119438711247
11.085606577092404,-0.8248444735774164,99.84375333957638
0.25735172077257934,0.4983787906391346,138.18783868493358
5.952556797780222,-3.39214699388341,138.36878176540003
1.4495261237122092,9.741434735249596,58.16697243704767
-0.1650498987412101,-4.997327376375949,30.880217181374658
19.529814192869953,-2.2859854046295878,80.3828760711205
9.29534906281537,-8.819539966592671,52.276257438439
-1.2372186159232983,11.477817289321626,75.05826614955282
3.18484570896465,-1.0715233983478274,18.628387585299834
3.572182126211894,-15.027644950338113,112.68140147413415
-6.423979285267651,18.53324503801492,150.56367947635903
-5.90183712726086,1.990305117874917,86.0915741883291
3.819810114392023,11.966299020457253,52.1050124755188
0.4541287482914549,1.8638063232861908,122.98765719698818
8.69613919276866,2.667725604658896,153.19838084773286
1.6634013234609566,3.0155311883238913,130.29007343786358
-7.519915732798411,6.537300089739575,85.6298331406494
-5.818539639233526,10.168325011762803,31.714929259520442
12.746935362959233,-6.227896854143781,71.95504950438831
2.232592665436769,0.48222974045982775,59.18480486279216
10.224113566836804,-4.76916932843531,55.9253162970105
-11.807210994296108,-4.041198203510119,186.99794921903504
1.5404031145844075,-9.515936624217664,46.4281023138682
6.264739254365046,18.8085789037094,125.06634771414156
-13.488696872159425,9.38661781129236,141.66769261485246
1.9911343469448728,19.21687434668223,190.8933233273672
-4.386146220729194,5.016553421297449,150.7628839864608
-12.908783702764058,-2.6375356625154014,13.0251089766382
2.5764980972929186,0.6057259546064228,182.1410134444777
0.7830241219121797,2.0269379833842613,60.74063382375956
8.576437438769256,1.3537748105930032,146.43662474086588
12.356282509806228,-4.140006836169099,40.61283521886239
-1.2937240711008766,15.70020067357104,177.51345210376977
-10.58190886167027,-7.733530396477568,50.86037430393782
-6.768108167243144,5.020755320983481,26.44579448385318
-12.304866763171987,-10.935229605464935,146.44936729935057
0.1345995332100995,-10.615013876372275,21.558987337239156
13.347922742456902,0.6464503900739931,167.52824997224303
3.8285680956205947,1.06416688217669,100.28543938522428
3.8072359192893415,0.07074021692383156,40.05085727442106
-11.313049302983622,7.125829493919323,182.5179935305964
16.829388232071427,3.8840450473665533,105.61100420000813
-8.899415601107139,-9.251782091951489,188.61914406560552
1.0255700094215334,0.7412092162611381,8.672353244454634
-8.693703260349748,2.396730722625862,158.0108355268161
-0.3043297118250974,-0.2938385110605139,112.05619591238596
7.996509432195646,3.7469966447780845,85.81932910760462
10.549654670293302,-5.99204193007791,174.23358409853614
0.5312509652258555,9.881366346827871,71.034416786529
2.0502677046171147,6.120096903796131,162.72432470487726
1.4074885899196479,-4.4545782345759335,162.4230491408334
-1.4984922102533096,-12.798826855218714,121.37830054029084
3.535558816129311,10.039126542499842,83.65906003285657
8.737726172192591,6.571230725852154,194.69345956440688
1.2310065930867782,-8.678885998437385,171.34574391988852
3.6340144946272996,2.369661158868455,183.42558930501815
-12.057573686610795,-13.016959067132989,153.057241356615
2.9635013782204735,-0.9805560738110817,30.07180279394173
-2.7046340501389543,4.577795734680969,165.08913549096576
-2.006260395963757,1.7922954477803397,185.69172215061113
18.104892603082504,5.5125712788852335,63.921781625635575
15.757045833343069,1.5361377056841399,46.5492494905787
-9.172958671251237,1.298152703394583,115.23616001510024
-0.1689269272338928,15.848172734141924,40.74354193049609
-2.4015800704921912,2.0743623532742697,95.42812077738745
-6.445236355454855,-15.49845911304765,51.529545642363495
-2.3208351724569027,-5.65776491130009,83.52105641607011
-5.444327691914756,7.61099437381132,172.35181716791527
-6.702646005411026,15.970226263673572,30.844502317700062
-6.297265897206912,18.00199969579312,28.76547075350362
-4.787054958378817,15.515332857185058,40.15346338842403
10.50509189678876,-8.606465581172273,134.9312999872377
1.935119694859128,-0.23236162425919882,125.06330605691922
0.14886420768896796,2.6352191388577015,198.47435556062737
12.77048158484013,-6.357229148037366,180.75158954922586
4.1242463271134895,0.1044366345055363,81.81897517940797
2.9017198569156624,18.147721937569113,72.67788826971223
-2.841536904655781,2.762132048830584,133.35241318881396
10.231511223155684,1.6527532943769656,1.8408802858092876
1.622253468039078,-2.8262628535181604,152.22153856152607
5.645779666907098,-2.2832081841604155,94.65308276833733
11.494445789154739,-3.6323855631430635,35.84234091494578
-5.224736624703556,5.182974872965613,35.403177830210275
-15.367473187972013,-3.8973906441486235,149.3923254903458
-11.11000026456098,7.8503908359749355,198.79644757290768
-4.4437865110218375,6.816861846542541,36.51915881040575
-15.13011974528113,-1.8437417393256883,37.537321501213604
-2.501276374124391,-5.696685159400614,138.73101739030892
8.036204324602346,2.7253013310793532,136.18609215373965
-8.526853344053777,10.489004290599151,47.74491030000196
-7.27115270462461,-1.681326566194922,100.89867634813798
-6.293229224126679,-5.430327107742107,127.2115176866652
0.7943020788824511,-4.335181761287824,166.6553975432572
-18.221595258893505,1.2889536734272573,34.537557520272635
9.444649875938458,-16.063310774544796,162.70957225040235
3.840975364641363,6.254874113295969,112.0106072823106
7.8719195660824095,16.390935443740833,23.46493981139053
1.349049291527778,-1.0008597960133994,144.13618081632455
-0.24774023700765713,0.7971113713876334,110.85927320959081
-9.51199771075955,-7.583486167109392,106.24313148821905
4.647954287003356,13.253234241373155,144.4797558208999
1.08863688291965,16.9865426937595,107.63258044076984
12.61309543929652,-9.875802027775691,66.01357450843244
13.084117438925,4.966738405372475,59.420036132636
-4.988164367650967,4.992725842945237,130.42162688784916
7.882764121709113,-6.952532157757287,70.58724117867175
11.633087973773995,9.245275051308004,32.6368825054123
1.449250476175902,14.73949533566383,135.29511872562065
6.527058693563876,-0.7296476975313952,128.71352427231045
-14.160166344224308,6.0599250827095394,49.78311770884587
2.2104576317290197,10.108091814469295,143.42909536726376
-7.526730232071154,8.092030418854678,90.71223021093606
-15.231069353113247,-1.5069698137183078,107.8337101317661
-0.2965610169629024,0.5038999271634852,22.5830150104088
-5.515767965999788,13.699455030548624,134.35435874188295
12.986274050714789,-9.157105173318952,12.95134075017259
17.590372718608947,-1.4543946327090134,68.90763547367966
-4.3581145685971405,-16.35388973270042,191.0084704051328
-1.6689926594561142,-8.03981910646105,45.47893557950924
2.6982605857387347,-7.0164527576801845,97.88707507621413
-6.6738163144007725,9.099877809665072,191.15448874802863
-2.4836842916317545,-6.630088354347383,17.158419846399187
4.652320105555533,1.6469882449537254,153.26345575525673
3.407553944506475,9.160128736388474,32.48760672887337
-12.126938260692556,-12.567185386038116,37.750122857544376
8.615054601273577,8.313207903303558,104.67052142247117
1.8051462986103068,10.026856557737307,113.52872398130513
7.156176402464378,-0.16566554411838275,162.1327916155101
-0.5256771612260907,19.45683806180738,153.81250311726603
-3.995752782823912,-0.12695261836576366,20.69929588879782
-6.974005229643295,-17.133689178394743,58.08511548391895
1.0700066014378766,-0.6968194665220698,175.1240277950779
-4.50643038995932,-9.512787513555393,195.22282025798006
2.8435599733257364,-1.7192093017275714,132.10090719773865
1.7811728980766743,-1.3711367705267858,101.85633156945184
-0.5389241800810677,-1.4107614414896268,177.56384285056782
-13.168616545074014,0.5385523187876964,147.34303522739353
-12.109862912632087,-14.944138456894233,91.08344924847171
0.9431582572065801,-0.9265038785084763,155.81777204929958
-4.995835763321597,-17.498827734360617,144.86700619954826
-1.1225929203470768,-1.7722779655687613,109.88359364497411
-6.538873242293418,1.899360357393273,36.912393759156956
5.566932940262262,3.1178630455896377,7.992005814723702
-19.61867240703578,-1.043341987054269,68.42803036256583
10.83469111174581,-3.8092744927932056,113.65545188102897
-9.947033596507026,-13.261830717679462,9.529229586350318
-2.5814517800176677,0.8869334338339137,14.158452823689881
11.75012938418498,-1.358017362470374,78.24938222759874
3.9205895745059474,14.156025021834688,95.96815688972158
5.892886195383896,7.902038819156255,76.45788962649831
0.271509092951921,4.769654613456434,189.77634356805285
4.0924080035620465,-15.544779696756517,172.5906043889091
-0.24768812698374415,0.07696657852112321,79.6677817787623
-3.2624515067163506,-4.552960972233071,91.38204697515103
-13.936089192128335,-4.645597914241656,198.21959606956187
-6.021447381635372,-2.6373491336061474,41.75681309702326
-8.262766676127798,1.1795683897043874,57.047340353491485
3.2098018217653754,14.14173002672061,40.29572363653375
-0.5708806681921801,1.730127021934686,31.137398689568418
2.395012231234244,-2.755345545424317,190.12474068622572
4.391891807577205,-1.2393019063691713,159.454235467078
-6.0494337547207575,-8.908460060712644,189.24150724720022
-5.242252628482196,4.723481281113165,10.948769572345075
0.28990075550924,4.853644167436143,20.98487850756754
0.4720852409207309,-1.015133706275694,119.23054247125103
-8.004241535982779,10.073882270980143,60.90110396645751
-11.34584718082408,-12.452227400384768,19.724042848105782
-3.777098770542302,5.403305856737344,85.97069362783387
0.010395545866999187,-0.28239501013474927,160.32879687640838
-0.652820648273992,0.5963912823308287,139.66649723916566
-19.251573418859696,-0.11059755716873663,13.64447062473011
-6.800890029196667,-3.9188400131539614,179.72709431178092
-0.9898750227215167,2.558760072128837,122.57489780486353
13.83821499802046,11.008065949445523,64.41719989530593
10.17244775972572,-1.3017080096409934,111.05922287120885
-0.5971513429888349,-15.890472868960913,39.84392743290659
1.07492658247057,17.16962025478756,141.12498904857966
4.10435428744886,-3.1944882764040243,99.08796498643639
5.4286097895014835,5.455991471721127,111.21663856242566
-13.574972468657927,-0.08875618495040173,165.60938606746507
-1.9159351488623755,-1.4840313594024213,149.3764800313845
-6.086908656721809,-5.38278496366023,85.14009666109375
0.10053137815245647,9.276440499645693,117.33815700672396
-0.2872740652462342,0.3373577637535842,15.143443470275098
-14.860308667948567,2.337925431452321,68.64615921410169
5.227914480084044,0.15595169142511825,167.13148813577422
13.792083106611168,4.686875301800944,152.2084447041219
0.4079242598538496,-0.34722851565303436,88.69119178883153
5.805437350883357,1.2921240162300118,143.656363581135
-8.259452892772124,-1.5496393296344386,159.81857522877317
-6.0306277210849295,-3.104281694379723,35.620791900024365
6.03888548572141,15.932050423058119,55.74891670009556
5.20405035791316,-3.428816741055318,185.15204613225552
1.2237402606848446,1.110485280049147,22.932956882858303
11.644785912039525,-8.197244858184375,84.8113960421029
11.306285128125236,12.080737598234908,91.19071040314483
0.18194932642895204,-1.5359133343797384,54.050300477939615
-8.605835077669681,-5.510980111875252,48.11070248456468
-0.007437647289913682,0.12840026951563357,12.284401667698708
-5.694555030882092,0.3140312580383083,50.0598726391881
13.356340788255016,-2.043988411675954,194.89066598658576
6.323419024409636,7.355923291578305,196.39412676160478
-16.94234474222661,-10.137074751938306,183.20347890645684
3.850610383745014,-0.562819643401974,149.39298066171918
-7.777386857518569,-13.310358513189536,51.63922385058821
4.568312005777297,-12.188938853012473,7.9481402547251445
5.264249427909577,5.239401972373604,43.100468681854665
1.2118505748689123,-4.109365652681422,130.80939853114054
3.1055936996882867,-3.920225082889529,199.79531799087547
-1.504464643721397,-17.203027584712324,120.67567292735899
10.185780245067077,-12.591855511965232,122.42576940242333
0.6734973175030587,-19.935895511333733,67.2823791709432
4.812825659175107,-1.0979506334573252,140.6982325147539
3.701688887562561,-6.000941339929907,142.02345735475717
7.169845840959545,15.193521814204402,121.15842586007881
-6.178508703965193,17.717789231686954,53.59868589483283
-0.9420227587266715,-0.7805192441852431,96.66056949016976
3.64162789137946,-4.72508593969943,153.9942204556869
11.649837863249937,8.523632166947692,157.9781746200916
-10.765037534963078,3.752772102133561,23.99970404974392
-14.844939124418083,1.4917009001782626,140.47789414765558
5.615198342854936,-0.5972259930827377,129.86797995661945
-9.497592016702914,-6.752737538181372,165.8425877520409
-12.261564050337293,11.791314201070707,102.13495995334615
-12.52290692947831,11.38699422949726,141.71680646704849
3.0970790073765615,-8.110228841301126,21.23142340901605
2.1764472138398143,1.4179295218075254,37.309517148326734
-2.2659854284939502,-12.518876174303829,182.48949444355745
-12.094787144909326,-2.967234736758328,193.91276382188792
19.97976168724673,0.781100102918661,26.54160859861543
-15.755558524595104,5.720270671306363,192.3914076174594
14.76714800316147,3.822428649496003,129.3019264130238
0.5234679648308159,-7.4048336142763675,9.872420224292933
-18.197073636131975,-5.847022587941442,43.179642061294565
-1.9067256195507993,15.770650700301957,176.5159424573781
-4.714385464037373,-17.26247982761276,128.29949286724218
0.516892483475039,5.745488734084351,7.530859610422502
4.927206210814564,-2.1326536200550477,88.74416690113335
-17.117294785968454,9.773505729304395,69.14651219059438
-12.20835341000764,-11.337931132016417,157.09012863258164
-10.310704748505762,-6.010574410144494,124.94442132645021
-12.212852992974817,8.690901580988347,39.97449173824705
17.606771340853655,3.7282973992077584,5.764135453470032
-4.8038225752375885,-5.863141746734331,143.52339319089145
16.298544498612813,-6.1047857483663055,48.55024896914182
10.006092657735289,7.725956809396348,93.25336659225366
-14.56521169706492,-5.46489563075148,46.046576010655826
-0.8376481172506317,-1.8630214726027026,94.95426777894254
10.96954502052989,8.878452011925575,66.02587279805883
10.528245799217666,7.662978936160206,79.30774433664187
1.8102867811553536,4.5909449985237885,91.4200906315461
0.38577975603357934,-2.402091391465009,64.90765828654644
-1.1539072083908166,-2.003418323075247,101.65798702606695
7.084167680123286,-0.7800628945768453,14.105151805285177
7.177581578330423,2.3493863784351086,64.19176842082331
4.384276610064962,-8.405197125454405,80.92746255523605
6.922575591495828,-6.268877047733303,76.60924280965983
-4.235741361856255,12.214712136903128,121.59684363718416
-7.2058305734196,-15.74549057132923,120.27823437393106
12.377661107877113,-11.044685614378034,57.8829463421459
-3.345632258886681,-1.483224109920914,119.15875074598337
-7.9322513787429685,2.985857345965734,199.03554971378355
15.170557955300572,-4.282539853363046,191.1734593442567
0.1254208200628876,1.0424746403060676,174.62653816190118
9.034484327172168,-15.62763179551495,74.65819972408126
-1.861981833435617,1.1547186675022634,5.206623093825424
-1.3574143093528803,9.287337886845684,190.42745470117023
-17.832886306291844,-1.993852668368625,97.01494305477527
-11.092741052493924,10.748259068282524,126.50351762532866
-3.75886291779776,-0.9217724399111978,44.09674518066162
2.712126565122638,0.7239917416746602,47.96710776083106
-1.6030242334985771,2.5399464141367343,187.35330293767737
2.9500462295524703,13.72095391135673,193.39834898725226
-9.898626811716705,-1.0140139412498348,81.41536657313104
-1.2207626524615571,-13.170214646233322,186.99319024208384
2.438887327641274,3.726625352365275,147.42305812182298
12.021269506491535,-4.623567717820099,112.00011304860622
4.0239409141198195,5.7221363509470775,167.0458888493973
-0.5642976445233279,7.369980222383043,7.475015764067616
-8.907846170507801,-3.2072300567632945,173.69650712267207
2.3004396742254047,2.0167320839036607,6.074930598410355
-17.130547466094978,-5.515857033730974,136.24234260453807
-0.6208132131162349,-1.134869467617824,176.55743113947764
-8.557467284056099,-9.062387723752693,175.0080145494817
-3.290690747902675,3.0826232650856107,4.424447869308268
-4.501231529506129,14.547668921792582,182.0259120092239
0.06572997205504466,-0.4077980440052187,139.67168640160142
11.427068093169673,-1.1305571469910767,110.86062282078456
12.967409168423746,-3.7235750955568467,83.74986224452417
6.2841196288074395,11.955942778587946,112.88267759827211
10.449793817681536,8.454335363354348,190.99891977746253
-1.0204074132607517,-7.659359469363157,80.40156730765496
-12.154245046221021,13.466198119578833,19.22748448347327
-6.566187754221378,-15.18891107018925,24.242996925557758
10.894045697403229,6.093552836952412,31.45278008970671
7.40138538703207,1.466538171958318,160.38611914702784
-10.487423836700547,13.881225353622533,21.257963006985435
-2.6592362290748333,-10.265649245603448,96.15793910290466
1.9599889746934451,-6.9189919076408835,67.98532385232305
