-0.10041767406232988,116.52878754553713,5.229645434389619
12.786103593129654,19.036399549556382,-2.2389463881253535
-4.816926324868268,174.1105558716369,13.078498720753553
4.1936385834142245,58.47050807988112,-7.328322303024552
0.48443563679181434,98.63835656097902,0.6008292764967689
-2.8463016696631236,176.97053915760532,16.05610527688051
-5.893043293057687,22.073240878263654,9.22682739598693
-0.6187008821198285,141.95960356267977,-1.6111554977695597
1.0934890195836315,118.86357420357739,-13.880408006422572
8.801373375953785,82.50949754501377,9.166305772064774
-8.981737436895289,119.3989288664051,15.764111766203023
-3.7890853740373136,132.3529673655494,16.184437596777556
6.8040964210107004,76.6952623591906,-7.591474086100462
12.264999125177718,58.5296763383556,-14.640544569383293
1.3901989691054908,173.9760032098063,0.9351262451846243
-1.5857583450335615,41.49871870155302,5.549352710422202
-2.0327408279648074,124.09633264690505,1.6275581168075486
7.244622995156386,189.86264002793354,11.6482600213612
0.15583583247045604,40.85577736673609,-19.133672912771697
9.318809752494936,54.15429317519684,8.157939753642538
0.37770659437128973,33.995275769413546,9.444263325506938
-0.3415099206601431,176.31364555084068,-1.729430506606115
8.050441509337066,1.7880114329713592,-7.729840463906906
-9.653984186084806,100.78057861812395,5.131987978058897
-10.196642979447152,156.6368027449481,3.1796290150146747
12.910865479268324,10.35836007220472,7.025959842931517
-15.665998632598377,169.1869121197512,10.149207279375297
8.730391382713481,182.8997818203557,3.307378200669123
-0.6076369458990131,67.69450728883415,1.6967004921645001
6.325007099451158,44.45656585646909,-7.464465514715022
-4.664603816767118,151.33310033026422,0.9720311118722305
-1.0529162892911204,26.65006517329742,-17.39164932683295
0.1542835396666949,100.03490308605888,0.20135390673066447
4.843208516677458,170.98929346440065,7.338818362450707
5.269134535961664,6.829711344623202,-3.076623070689898
8.45215452867922,124.2295093544202,-3.8367446397358274
4.97852100634632,76.83734437852168,4.9730855749267
1.4361688498189582,190.25208115416208,-18.204707222653468
-17.608218198487368,136.96554436706714,-0.8659006995148154
-11.650607458381334,137.98773113889345,10.508598869102835
-3.148502541798036,49.693304785436496,-2.297985706763146
6.37989612878955,152.19154290630124,-10.287378951094471
-0.2516312129106721,102.63272184594456,0.9110319408325869
7.921070924308759,112.4882060711531,8.396728275926929
-1.1410179518888957,19.852876205892823,-13.009164310062681
-13.191425046221143,14.651092758022921,7.084798295316316
4.460410034701811,15.389530406556883,6.923650554304037
-10.793290239967515,83.71761972976606,6.142929908547961
4.1233366656738255,93.63652502256336,-14.412960219029573
-10.398333081110435,21.259340586838384,-0.5551622498662145
-17.100122133698804,175.5701292374722,-10.215855267985418
10.787715731109298,14.191928114622222,-3.495597147921316
-3.805640592900436,175.34173743594303,16.193189957393205
1.2930530080097276,106.1143603937267,4.483312993204824
-6.764506415597242,54.02105416771059,9.187796292712456
6.584620760938274,168.0363472183439,-16.245262655041117
16.86161921048159,116.5549383333947,4.688750339174351
15.313783054327873,188.76161506587675,11.410699786471021
12.630802312369083,103.75754354958093,5.081438160995921
9.807450279159944,75.00446213430467,-9.919702695728827
10.294812498984568,162.91585518457586,13.819125826630465
-5.764471028457086,175.1276831305683,0.8526157032179854
3.4829895291007174,6.160628861710538,-10.986054930129841
-1.247398801036133,125.97804632655492,18.500346213967795
5.5824759989280635,163.71520808519247,-0.5297900074665653
7.438415593002748,193.5725286295614,-7.700970520374392
-1.4693099251958048,178.33902128084554,-2.0187264936919793
-3.1908641478499105,146.32272351348962,8.759194501187933
0.07525939951462197,40.7896596288029,-0.007852447010736003
11.536297143781441,131.71938909364127,1.9731173627180165
9.261559677918408,167.63683686984183,-4.732184151175949
6.2162829251918295,176.42711477659873,-16.47575690437898
2.733599792974784,173.78670378621442,0.575545238721265
0.10433045498125083,63.37376409626645,-2.237554602721739
-5.495239245379466,143.40170703512365,-4.319385729716349
-10.55496996562723,99.00894579310946,-12.912796050818702
2.1919969949735667,66.35267991553877,1.508665171014935
-2.2057992650681113,186.78232176802214,4.5298115224992515
14.393263643095693,28.768563758220388,11.971649445775798
-11.482733427499351,175.64303143095935,-5.812649717259501
8.604978139312852,82.7575455534439,12.377001948422514
0.8746140942339721,19.421476856862974,-2.8154542547498456
-3.994325311998506,100.15443647477957,6.982232533362705
-0.9004151470554168,132.99982249539858,-14.578304944359841
-2.9911767664538442,132.1018914675023,9.80992322909284
-7.412560632911084,95.60747158887023,-14.811322535088191
-11.054047574316364,169.55753228562583,5.471482038807601
0.4899346212136935,118.76892062680469,-0.46113622769490836
2.952790900020102,3.738405246296894,-3.7670646796916936
-0.8581016143641286,61.86840350837348,8.262069373934422
6.797175523005186,3.067240194283949,10.187435421879425
-18.943281424398933,68.81165871210402,0.8988725350406791
4.141967686761138,16.636616945068017,13.444894751117078
10.88234159938816,165.61803605704216,-9.985973443604847
-12.278936214806075,121.32709808181488,-2.3718069325122495
5.605180341968796,103.54956491219458,15.820797673602751
-1.930125288729918,17.76904759119171,9.164719736527022
0.6398342556220308,166.80926803760866,-0.574863879050275
-1.902701505306034,12.771076113664549,9.261768535876856
0.94347916937886,192.82244335822386,-9.460264760550318
10.605493214461791,168.05905829940824,0.7985275910759505
12.176813933478549,121.36397806830273,-2.8246818437416414
-4.594051625840508,60.95055398618177,1.888906399465496
-4.848599927865884,75.77839261060674,-15.728729805694181
10.277860316500233,99.02934395000278,6.228203252506084
-4.482395206530077,176.14964573847493,-5.189733299382139
-1.4999153410632622,128.7160713054894,-2.331612970605289
-0.4848433767793785,53.24603926470082,0.5132057560879736
-10.172169019772715,118.44105400369949,-9.195820723377693
7.043745770897358,148.75449600693096,8.755501064937212
0.9674377312056324,149.0476614209543,0.32769045710974687
4.8770019866799315,42.29911448197336,-2.3102553769775285
8.352117078130659,35.890808400850084,-3.733640557452735
-2.4045323916303167,60.71974667282862,9.253967679435656
5.730759036136334,41.96900899935494,3.048686141885899
-15.062048196193272,49.090630001290904,-1.920510567584181
9.517766539386708,128.22454707924138,1.9888694965294793
-1.2883496206861642,104.05164901046315,0.05483990555785243
-10.952073647726355,80.46508570963404,-15.68067316038646
9.723423243607874,8.634444815600428,12.115958205865205
-12.8755434480207,33.44814451151408,-1.0695679621424448
11.326056375370907,149.98566823775616,-13.668385477709121
-15.567692504378927,172.87288943413176,-9.973165512020207
1.981807008964926,34.571416627860984,-2.2662465982271254
-8.707641101271559,73.32082052754973,-8.509134512325275
-10.231780805631232,189.204314341262,1.280947251763787
11.892602847165747,102.85274158954267,1.6555787586192015
17.730897574191356,82.34512767202354,4.234184571004284
-6.650131342799626,183.8577619243172,2.440781882705972
-0.8152695571526043,127.45942959816622,-15.700937664873152
1.2177566991219169,16.0896691056847,1.1605013684501317
3.587168309195621,36.544609375673254,0.6673986639835701
-7.491690256512849,87.35419618419651,-9.973180427009721
-5.506878642853065,79.89625899379158,4.4298471674133895
1.139464519040206,99.56498966570084,1.5771581433705837
-12.924082273524224,71.09592599915864,-7.513117293230674
-0.9477060920029912,131.86013350365874,6.941301899703247
-10.7924394741267,72.15580577425933,3.1400590958664956
-2.40564420717695,119.96939975540019,-4.696429104075121
-1.2252619798882534,109.69857429441731,0.7748920376719008
-1.962104530319137,103.60540369996876,-0.34818464688702533
4.861214459657342,159.6975253796959,6.362947935484043
-0.8188239866554999,177.0111770534017,16.06207521799449
-1.5503985879352982,192.92714308593986,-5.742633573714894
-18.00809549384449,24.396237173272862,-5.767714006393939
-5.950708434635618,187.13379648708107,-9.170244490540023
-14.920819586904091,36.138924317741505,6.813276322988123
0.4493405063522821,49.34787912736465,1.303200354186536
2.340627650699698,179.0753714211496,-0.9081457457599728
7.969948177385173,8.768015442129151,-9.292048083121593
8.776910542955736,105.25373697473856,-8.985242814300145
0.47319817018870897,179.24442766713403,0.9520746667346158
0.46759000798228123,122.84743127550257,-0.08860382555896186
-0.5050832850340942,156.32120222111976,15.997697033736541
-11.070912283783171,118.0054485435383,1.1714421600683247
-18.8675414784159,36.70862628772289,6.490792635119373
-6.840274387376588,108.09396492846845,-1.497182499326012
-3.0543423070166575,130.93344719681116,-1.0974466752929775
-0.10424229361827134,123.99036515274993,-2.9422665579459633
2.2657938687825534,188.0131100901571,15.346010418290183
-0.14502661779342377,144.3389945139388,-0.6126968350868317
-0.3682665120518713,191.63262161730523,-9.258483986128773
10.416812255609708,73.86365837342939,10.033884698041799
0.0881678144822802,148.6265671100068,-4.2844627615354485
-11.58408920206324,71.67098175048316,15.1373359629174
13.89981325196527,198.3000900699627,-3.497819125521911
-0.261561523316564,181.39111147159718,0.8083781771570124
-0.7958978850315885,48.591890928999845,1.160951902018622
11.496009525921577,21.319623802444255,12.471931221679057
2.242012664055862,111.61524607783547,4.763838215015105
-4.916908005644243,41.0148030896937,-17.806382865461256
-0.03646198054940767,23.5039434529559,0.20465166338462804
2.5615613692358066,107.0302551953165,-3.4140239441649203
0.03477322993075223,18.892679492956567,5.210551686746218
-10.06694784917647,148.56796908521474,-5.9913782132121565
10.801619892417051,20.307874457666507,-8.004145336980534
6.367223917307823,29.53573913703662,17.228508594861108
-2.707190663494441,48.159763071335384,15.202995454116564
4.915105781698982,30.12238122881041,-1.9395409833701203
-8.559088082312638,122.29100534047808,-2.3024190015171113
-6.445757041776044,131.2028800687111,0.028310806356686345
-12.946514771457046,147.30192665760015,9.394938780565731
8.295258712420464,148.99069917649203,16.38820852223072
-1.1191589797617199,119.71406583740645,-0.7378322987014005
0.30274365138135173,70.08114891177368,3.0468576426948006
1.4079884699109164,91.33603086861109,18.90980750763952
4.726403280568966,1.1195259331010954,-15.489077104639312
13.930927797836098,88.98216133144379,12.73587634694264
3.474240174987627,51.3899622067826,-3.2110035587887955
6.17333813967627,137.81960587792747,-10.290309365366255
-2.3403670130486374,120.26805015638517,-1.9193441466184247
-11.1012357712549,88.394519294014,8.869533713754839
-2.4580298167892085,18.59723863124001,-8.329484014573776
-4.589226800951702,92.69417644542479,-5.156540092541158
6.241790337639933,184.87965079532898,-6.773349146173731
-1.235350596692876,8.774146235351644,-1.9315516933375354
3.1546358180665717,56.44700457069496,-4.318569455741694
-10.786092893003737,163.58685065817946,10.847923752876836
9.039168177541443,112.49783115353478,-1.323228098801209
-0.6699461401013225,65.00751446818873,5.173842237231657
7.232484114256497,133.16552576724442,-0.694466342539614
-5.483599333406818,67.8096480965037,11.078226086154462
6.613573159005202,156.98260934847684,13.875999987918275
6.027937295660085,53.555663672793564,8.566188886805675
0.21719079496065977,122.63030460451967,-0.6290123972742175
-7.114382137036158,33.74941093879431,3.5042716638950995
5.20993980619848,189.3087585818878,12.006739996072389
3.8833714104181416,171.40285552259445,-4.318844525755524
-15.65503313795299,17.875111831941215,4.25765359840764
6.787973139690194,36.09541544604766,14.358167779798455
-1.380840093298176,199.1407709604683,-7.774859771658649
-10.172274503082177,181.0705470514004,12.726566092369337
-16.693336977021083,150.212328670315,-4.886252187240892
0.007945111202883482,170.42944215833327,-16.09938250092734
3.056391413040349,73.15681813987973,-12.341746598007832
-1.0156723968863208,52.15119261351959,0.1967473352614416
-8.718915965372789,160.8089497030714,16.014589768415252
-9.389958206457178,141.23923524377344,1.879536137591276
-4.519800731611034,146.28974458276974,-2.228360600596565
-3.4900938949560527,128.4548181244556,-17.41956532621129
5.469189798822319,99.34527161990651,-13.311994322416318
15.711582855146213,147.3331395622813,10.700886712933016
-1.858469041840331,102.98359286409935,4.847931567381112
1.9135290799780649,151.19207181533812,-0.7495783848468476
-1.6361327300286348,181.54400304259138,-11.178094903518016
3.3948553214658217,99.18334312206285,-10.761876624016068
-2.0365465350115386,97.08091594905648,5.160368043254802
-1.9973088366556377,55.90579748582793,-1.2944243988538129
1.9187669711248656,183.4792474454323,5.928604457695721
-1.0628944863380771,118.90948172775512,-1.833052680223437
11.023698594068726,155.53451058711218,4.80006232276398
-10.223784290210627,168.59859941804845,-13.214926217055073
-3.6362428367093167,190.81196642597783,6.003651045273729
-0.3892965837582842,130.03257008627915,-4.922059239732718
4.415029577247937,144.42697157358256,-18.99544475733074
-10.603345208921601,34.86852816628265,1.6793775880909232
0.23727610242909958,135.98494989393984,-17.56803895009621
-1.7390298125632204,12.08693794723188,-0.6072066494735711
-12.932541524848517,105.11938304828779,7.586171141623863
-2.1473029864743274,37.378027956581896,-0.06841136758565514
-1.1111436198295517,181.21291018414246,3.975729375197844
-6.820917112448721,158.22014756981633,-8.25136808384147
15.268209334121776,137.98088113826833,10.310864223768371
-1.8304026764746966,119.16183054606317,3.709485443323527
11.661018186714198,193.97955521146645,-15.732870718345081
1.3657445892844362,81.57020372318316,1.5825213907461262
-1.1531063619861879,49.78712440606954,-19.85501178101097
-0.21702291850589528,62.05728409451425,0.524752743744557
-6.424707986092557,84.45106853886561,1.6735284977049818
-0.0032769457606014484,122.91049960855851,0.026428384779616097
3.4574469382737787,156.93741214397988,12.092458506073978
-0.12935613785517427,124.16625508461424,1.0492212809484074
9.286295899749392,50.828362806035486,-10.063041464719985
-3.0375053935453487,22.81112836490211,-0.5700965305993927
-8.073689645139936,44.053225086993784,-1.8729057833398597
4.524423453105537,36.386999238087526,-4.165245074603572
-6.63513738671398,193.02445516711865,13.912464489507498
3.978658455434052,176.11116499189728,4.050964761356506
12.4330066211589,41.19229632684518,-7.308147455063333
0.17489019916684526,16.97760449309207,0.40627950660795886
-4.460163821283436,38.12063569491188,-1.1709955795675626
3.830041858192811,157.53340339381003,-6.751996788152816
-10.276479154566934,191.71341720854346,-4.285081988918709
5.556437430969928,73.87368423601926,-8.814086195658298
2.2202507860861167,43.368540010294176,-10.341624164744553
-10.756170606364059,2.3377662760070583,-3.2054940790347204
16.698662098269512,53.98210785874205,-10.671705682692014
5.378243767107707,135.43188084071232,-0.23134353680559339
6.226958958463656,189.15152611208507,-11.98535241859669
-17.47342533414072,194.17254178025988,-0.4618762276821078
2.4693884764081386,3.347751386407838,-4.146729387206357
2.7593202411524618,66.57126651186647,4.040300533036472
11.835201584136776,43.01076494361735,-8.291599958201692
-8.103322844157736,60.57272697247789,0.6818813337758527
-2.176311760383476,96.9171632811538,19.29207892449964
2.068960410915007,130.52781935084275,2.913747498523392
8.76752205324734,148.7813401238702,1.667386302090721
-3.110030145135973,169.79729103011937,0.753569048821143
-13.358692648255843,149.54490623358453,3.708498117922345
-5.850272257319927,14.240806167528962,18.4740419244514
17.422871008938483,53.47186745891823,7.577572673027813
5.946617229241796,34.490473150616154,8.323143586962692
-2.8262467780525653,138.5004935617724,12.233037548884639
1.2980919538090772,71.63409830561913,0.4059031025425188
-6.504853147362705,185.19403712556812,6.663873919239647
3.8478111088720675,103.27641443425857,-11.173938273597356
-1.9141513772519532,18.714544601315165,-3.566854536989344
-4.763335732407946,115.64675278489662,-1.9927479999908213
-0.14268359194223285,181.80596216150244,-0.4321938982783149
-18.975738354842985,19.827853041534006,5.336529130780966
-18.885552626813617,171.21480998929545,-1.7196025397066375
-14.092359024383303,136.51334117604682,4.230742566531054
15.772512226089992,108.67913815019294,-2.568961622293454
2.701510290048614,84.17268146690644,-3.385173733795945
-16.71017632136261,89.49245407322215,-6.335190108755207
3.1861216075009717,86.63784266623978,7.523503518110548
2.952516928119842,39.47655152617982,-9.842249606687663
5.853794693919276,184.72215720890202,-4.224727438380114
12.96790918654271,98.19527868255742,-4.4108896881904425
9.139697361786228,33.40478134333023,4.4072717235293375
-13.824147644605082,140.7959349317111,13.290245754085232
-1.430192330194481,132.70828535740776,-2.6577908479930485
-13.590976648525785,180.60022864237763,11.20626641579837
-4.384077479046655,138.82914969921097,-15.00386955159361
-7.47277618747814,125.0323587877177,-17.118302726419152
-1.1580059407044445,61.02990268680364,-14.20968163007975
-4.961404273468453,165.00357908684342,4.261813100669496
5.692122759505615,152.20062566471208,-13.491315892466075
-9.968506598667433,162.0747494774851,8.278660764131432
0.990315653572278,145.8795734300898,-0.6895970504712713
13.502901372547909,81.26849840293563,-10.465695740279768
-1.480664202615618,135.91822540725997,-5.680264466726427
-2.189698832887981,116.03612934574565,-1.1916740427679922
3.4470497539552105,135.70393160959335,-3.7080532216020816
-1.09070095234514,184.06929034855654,0.5484074190055375
0.20922267686328647,188.3534873297992,2.919809342472423
-11.446559346848096,105.76812215265552,7.4229715903177595
-14.423565866961338,49.13916357947707,-5.42819707079049
12.429032610348226,103.67853317738849,2.2246875298324897
1.478030060398192,49.798954928987825,-15.193626831795092
0.033145810330574565,127.44875865946508,-0.007636412712625718
2.2413021087194283,142.5512109590084,-0.5374129292704282
-10.525776263530986,141.89533031534708,-1.5874893514003732
-9.173094893621604,42.73623559007038,16.560529465715227
9.17506618928401,4.215458946651762,-11.134497942077024
2.7254238988001753,136.71930292770915,1.1044863237730005
17.286352718241876,185.89730576395468,0.5210667930434303
4.0082353661140235,148.43797539316375,-0.29939065448388247
2.7183628507151596,6.738336703547287,-4.42394836585834
-17.60390466613257,163.5413285347809,-6.664300041592758
14.011353033063692,20.002170025734365,7.0800159223281325
-8.502686061896723,175.26685926920786,0.5682910599911635
-1.0418983533406294,94.47867477611447,-12.781603756863344
-8.648780160357035,25.826060826100637,3.148267830023905
7.988399834933729,152.1028660044587,16.370926655111003
2.937054191337394,34.72671118541852,0.9588648380026656
-8.911066376303207,126.50953984355276,-1.0274214319149297
2.9277481362816737,170.85439391416705,9.443902887850092
-2.560090590319206,17.96239709279448,-0.7622085541752239
-2.9116534484934253,20.17739854982432,1.2673204820551218
-3.462757781249212,63.452988376195684,15.538514810267873
-15.22108895048368,146.61338808707174,-1.8237128693170117
-6.112717038865465,164.67578711387182,-10.925394876719544
-7.592853148507671,75.08725980436736,1.7171234131278348
-0.04237132489692315,135.48119652557608,3.995158522957867
0.08690824051165794,143.66020090662795,-0.2666437695273037
3.0695596650625006,130.54849758533206,-5.315609745303759
-6.443483364802176,41.76548268964475,4.405725217643351
2.42378485509601,168.80773866991555,2.3157955160808648
-11.097819163761438,108.97394287473321,1.2014332930188427
8.540335356061075,107.95909421258436,4.252990004546203
-7.379322822571473,189.1029081712534,-0.37111845672351285
-1.1704107822944403,197.7396327896783,-0.09701549675439523
13.748728998923445,33.06022549155239,4.583568755193716
3.935380516685915,59.05340284744154,-3.8828023773241362
-5.6974786057208915,166.39189347770903,-1.9349094693842759
1.764216990988624,157.36604916963745,-6.508818090598462
14.652447195256812,31.581458199391797,-5.041309339091096
1.735124012171444,141.34082034600692,-13.711970986309211
-4.140757241149689,50.979310099762934,-1.4175228460901022
-3.1456140214904607,159.62918272639916,7.811501147496404
3.407821402401611,121.09707557413488,4.768981630887752
-5.489980257237378,88.59225845017478,-16.64933429295724
-1.1032286303176975,20.12475595963583,0.513459782799888
-11.335223725982507,113.34703596739537,-8.482652999657118
17.376111249996228,165.05117455896777,5.9603143235783875
10.69114747575516,18.120381242568094,-12.00817412463864
1.2148359742970403,185.8051743395947,0.23986913446033012
-0.019612721950193465,107.2069038271687,-0.20856553192620034
13.226998858019144,6.9189035411727495,-2.98089599050844
-14.505833932342162,17.464573327096478,-0.5893502231180345
2.1338155170895536,59.8557908997881,-0.5248370446018344
11.92681966432521,85.73314943291341,-13.404914834812516
-3.442843577974462,181.94939598711503,0.39686914006887275
0.154499244723742,55.614927180011975,-0.4856697059500096
2.698432319134262,2.5845569494100884,-1.8392269150651723
5.709895666419826,193.0495407667255,-3.789428901038465
-12.758709270740775,134.30966645623718,3.414810262963029
9.69506035916875,62.859304143716365,-0.7834458682431519
18.78071576149735,48.20173985505498,0.24125570144791578
-0.6696695320085453,11.884110407302995,0.39301915550537275
-1.6103588963124713,93.5620709402532,-0.9069942107355284
-16.185929785938924,53.85638369642083,-3.7306246668468357
19.228613017417963,139.5519379049752,0.8576756098461236
-6.8907886820425945,22.714810010802555,11.033530465915483
-6.441911815433848,170.79053270492267,-13.609899241230632
-1.4472077817712878,115.18613678029972,0.5171683005818516
1.6003291101965658,169.68626383005423,11.313759655901483
10.749495347283512,110.11316801137619,-6.72974818044469
-0.39051538559164933,197.2672004216582,7.775232559870989
-0.3348958349811288,16.516444196737435,-2.601781905570266
-0.3616724874199692,76.14281242828886,-0.007898911191175298
-9.231938230405252,165.46274384111643,-2.3220610305505467
-16.906626597918496,23.460443062419145,0.6900650639862737
5.625540376913458,38.86006259411297,-1.5917014519845376
1.8867910027944477,162.53302048409654,8.652648254965596
1.5225784015660124,112.05032269691182,-3.6622807995313122
-0.1009895411148781,94.19200965241836,0.03557993027402253
-0.5614390549612277,79.64005892409276,-2.087139336248263
1.4338592482777155,37.60866359083905,-8.316746172231689
-13.673519128831662,58.92373254761188,-13.284700080903862
8.393794529663262,154.32195740039342,3.6605712177982594
-7.558958418774574,71.65741890587371,0.8153004182928479
-15.401844372250345,88.36028859489721,11.023577761605644
8.267222917116174,71.5238536908855,3.012308098036733
-2.5951323770205503,41.10677808041592,6.452488576908499
-6.180382701952304,119.64901444830518,6.466138344907734
2.1421350319560193,18.943420037535972,7.545953353804287
4.871072558085682,198.80754439110183,-3.284045182984846
2.343180328845353,184.4174441629456,-2.634392073063048
-6.007791051335757,77.08633223979477,5.163768401660006
1.8484192212376076,12.645218277326343,1.8271372096862042
6.687237584729735,20.180739572327333,2.724300913885824
-5.692788200318526,41.58753836696012,-11.754383689333803
-1.6182294136137063,63.629477813986,12.348953101798447
-0.6698233948042885,107.209612346473,1.1415385048290743
1.7895564479917574,24.388155651869692,-3.264905632765449
10.96730938960281,91.26443537241191,4.25765588448269
-13.111363909680044,96.574566561719,-2.39724581791419
8.178907334547057,119.4071800218139,-3.892443562980653
-9.334806758753384,136.245767297809,-13.842843194001768
0.08933437783107454,4.17405123043475,11.201133832464265
-5.852863596441233,187.23868025446922,-18.892807584754724
1.1568970001294776,77.04333651830414,-1.265083484512506
-6.407454732870657,41.621908747293524,-1.3289215323386534
-16.525323148528944,139.26693842189567,-3.27256733147122
-1.4043165880168638,118.88269412652772,-1.034000162168129
-0.708229271159513,191.4608720894622,2.023672893436567
-5.4930779327002135,86.87554895174847,3.3116474869647576
-2.946725064688238,55.16965066017381,-8.744716850010706
-0.8090511203228716,56.47403183797704,0.4126745857565299
3.9822720550270843,76.35747297672819,-2.6095494667618446
14.261991975802824,29.782595951298774,-8.756708005301947
12.366913357186192,31.749963035646566,-13.496514508688358
-0.5341789536553049,11.512755496043049,1.195902258702661
-2.756484446369138,71.24670899299907,10.80580034774324
-0.528873212229563,114.34396364706838,-10.837898222417177
-10.904943031352731,123.48937419856765,3.8657722483433146
1.2696375328147123,81.05555648942322,-18.4625464765712
2.1282031076207084,129.86881476078187,7.179797245167244
-0.2516960552910928,75.24204944043899,2.227646688164777
3.430092884945813,98.59106671056088,2.018157886417033
-10.141175701264295,117.95785615340367,-16.501782378039984
-11.594177367352627,30.8713016246799,-11.574832819159122
-4.416209996134231,183.61149866181293,12.165436408459758
0.08148590679391225,180.45081030604834,0.49802549805748414
-3.863330840556219,48.43834815776755,-11.233887708079244
-12.373677096555774,138.65812290371946,3.3247764190700653
2.67433453763388,51.4449283677112,3.2777120047514563
6.455952286435801,124.30842143758952,-1.1973670453280525
5.885559946926573,7.3166211081481025,-9.241652788643119
3.4466840651394848,48.73844757374894,-0.8038432264608985
10.927000377666445,188.46104127454336,-6.117962025715195
17.928693786773596,112.89655229269142,-6.353603500951485
-4.3286192531589895,188.33036868503928,3.0455250836271666
1.1434210774946016,125.18972938295644,-13.669985811352618
7.02436143487035,13.57528352537518,-6.096044613358468
-3.5131335940066437,84.48578262040927,-4.519786562801758
-4.533000630322847,138.23032824061866,7.344899176437839
3.190402898916203,178.4925870102129,-6.371167015134346
-0.5671209963104668,105.37098817071808,-0.6840080383101075
9.856657430796114,189.3476798308247,-12.041217379418947
-16.962136819061133,99.841816107543,-1.252965453679934
2.669963414063107,101.9254684247397,-18.62988012076881
8.151983151258237,134.36012517914702,-10.26562656677629
-10.769769205052551,74.79473865523372,-15.756379320675483
3.192533556946053,37.06816130190311,15.439391767036136
9.324358631111956,20.11388178204323,-3.30809485624773
-0.5150695249912418,22.123107190321022,0.5529827478519502
-5.278023249948801,146.74980458451193,16.65529255291775
3.323159988853562,152.52357752481998,-3.830582478325871
-10.26989681769646,162.1317010185759,-6.208182108160784
13.516174381999136,112.10020755386442,2.761213748521006
1.2263958979257075,142.03321149225656,1.7883860561218037
-16.262646494045857,83.97737465051489,-8.680362065984246
7.626432953426247,1.6126356727489632,-6.803328519668394
-0.8865090122644168,103.12943038186688,-0.9664032971203992
-13.56409870400961,75.53540984684064,3.5522754115871735
-5.638965701205681,118.22960324967562,-6.799827510582384
1.4839684191412377,154.46985532939493,1.140187199033397
8.978651140649479,70.00956897999589,11.363737972168362
2.0869256612732694,28.061413852068085,2.6325599730873535
-3.1477757331755325,12.383254749463424,4.779264463513218
3.617604455061205,77.22772718484362,-0.8756791478470454
0.025678991551960798,191.4953260789192,0.13397912317365873
2.5513937777360134,43.661546279437566,2.125088020354145
-9.828282453421263,127.439886914624,-1.1578852794540326
3.0115758312512924,81.94166151552432,-0.9174278764850945
12.119380603243048,186.13103569690907,15.671397613195554
1.7671345033539096,137.6416372368237,6.93343290346015
4.508262163385568,114.12397101372716,-9.059181755179
18.727278998356486,28.275981454274145,-1.5007669931417613
9.239187528213368,55.731927547286155,-6.657150304207577
9.276426404745056,96.53842853659572,7.918125613981008
6.421488134223184,7.7936639342367275,-14.834539550571858
-11.618298114379746,167.7061968341936,2.9518871801573745
11.312148731066333,100.42449061038829,-12.086672461972292
-10.621149444466814,43.36160536173479,6.612133304382203
-2.3922724524519907,129.08306547162104,-0.19465260357658873
11.140665815587054,64.03020057547457,7.058201221763884
14.337554414478218,8.634245939597673,-2.4202371780597485
10.980443480869328,77.35260187396742,-0.7505250931812485
10.483404506681,177.08956937980312,1.5566859149083065
-1.1678226672720837,185.16127618356143,19.764385178122026
3.0180016802870697,84.0079165185141,4.818484015457875
3.286788975040931,96.44908569620097,-12.107003104255028
1.2702249045798912,194.54596179746156,-12.956454056808347
3.5416965799168434,175.3478985081442,-11.555150166104912
7.954636341168793,0.2000036376195391,-2.4889421773057934
-0.008063389425510978,81.22869689917171,-0.015609608422473383
-1.1259956666519948,76.33558839698746,-13.168420934405212
7.398776109008694,151.05921580104808,-1.611318364278595
12.479040677066102,66.08861589885254,-4.435511842370697
2.47918785011589,46.579322579545334,0.8507602639476223
-4.997473666722694,196.36890118558432,8.661304805230927
-1.1088735260411702,69.70962362959487,-4.078018167815555
0.2978156731536962,189.94247207515505,-1.5883036166343965
7.646035966156531,32.351481284691495,8.646646096392288
4.5206358395754735,93.85655407371007,3.822583024100804
-7.35406074761238,84.84688515013676,4.694358219661475
-3.2428255710847886,76.78097549660339,3.3792872073850124
-3.0733640085686877,151.3491289286988,2.6159825213251375
4.403007818240884,72.27288443100954,-0.30322027898741494
-19.686631320432568,135.14077373838236,-0.09754646143619862
-1.7515152847593267,9.243651925606965,-18.641966958102092
-3.0675173640028324,173.832971313882,0.4361002977393351
-0.06573155694487418,124.10107762596883,0.18312759997848344
-5.021335089009298,156.91958283110608,4.045639387579308
4.46852721045972,107.18168203545734,-12.62315171717834
-4.228127889770834,113.13122784586531,-13.47991394607201
-8.522648559126122,136.9510776941199,0.5311055164517995
9.14360689567428,58.10625261742723,-14.782262919027856
4.904380859059086,163.457606965462,3.328231755802807
-17.120287505225413,120.79931480940091,-2.2155024438456636
9.956520380655945,92.58537384242662,-6.37471162127125
-18.673683941631094,148.30113863824113,-3.2122438129637083
9.920451675106788,101.17581836958935,4.21654244277675
-5.216960420589631,101.90070002240223,-2.691069580859045
8.220976534386967,23.48966208621821,-12.158520369526205
6.1730340488994635,150.65506718563717,-8.576147438892091
0.6927504548440516,63.0963222462253,1.4162269467368327
-12.210911059503175,135.42562430469033,7.643069425751726
10.566838217068105,31.311923457541212,-13.244461394896364
-19.179186044689597,182.96466573060144,2.0534202648801596
-19.765578800426322,59.948248116575684,-2.28317283405741
10.569191609625932,109.0222344182902,8.062892948458218
2.0113502303468223,30.5231464260588,1.4479531146166382
-0.004853501005613147,103.78095088069523,-0.2997628158390489
14.672881329923753,34.76181666888889,-3.0885590315037863
15.934384271124916,31.50394232762599,-6.749768042932525
-1.4268324537882242,36.89348160261729,1.23200128774449
-4.348453448421983,111.23072051307028,-1.904792589092861
-4.82198014447625,61.78375836214296,1.9980448243916373
-4.059558494010362,12.493518503990853,0.7382420972130618
1.4047801870823289,88.81107385056981,-4.20077740596465
6.1392472928241535,163.8490737170744,-17.746584403604494
-5.635501520388695,13.288533769052435,-10.110260487117777
0.13364238334852604,7.923475752443765,1.0561067438359675
5.288846823626688,121.61376326035109,2.04372907819955
0.03282071998183454,77.86112825840357,-2.7409824309037543
-11.054945263713545,89.25119468091607,-0.4071909163812895
13.433692766001615,120.74150913208305,-1.7639622450505055
-3.5740226116431946,171.73576783944463,6.158876100655694
12.278385550745465,62.295038290925376,-15.381066378904723
11.208737703146943,165.59099153554894,0.8604947352518734
4.060553467885492,11.95924334055416,-0.4634456983341496
-7.47877284514813,103.57019947013764,-18.395776414152547
4.974291310815577,0.20233125595683354,5.607429916292606
-1.0651506415925993,77.98282219636175,1.5047704606299803
-2.908274253268324,122.5775126810774,-2.8357944500018375
6.038693732049363,110.73314498499683,-2.3997531035714617
-9.339241606034323,3.056770229459138,11.262188046709213
-11.653585614612943,196.328250987798,-12.20879062722866
0.7517137785316831,136.4114454002544,-1.255511374075144
9.179529356224696,107.0122804999355,15.73150391798662
7.358884699548729,10.242821688525394,13.011747878505213
-6.899323642190683,125.8298013704652,-2.8964487069674267
16.599394523411746,169.79460770999899,-7.443712060455494
-1.1942255663349213,38.555893880502865,-2.7432116823484143
-7.011566533727542,80.0504107032318,1.8014468448927292
13.966087709146615,47.11532764336654,1.4495126465333545
-3.796971627472653,81.53016719239166,-6.765063621990967
0.13490863957372212,174.95450687234637,6.119783559398746
-8.318938368482353,87.7920142940254,-5.001383395312588
8.68372105472602,85.86680621189866,8.00826632637479
-2.601528852977466,48.147857420343556,-1.3906038177538633
-5.564358111709205,64.38784502240817,-9.39424554695237
-7.9746055284777215,8.63891098759144,13.283440911848148
-5.379548500539094,4.603734478393129,-4.5403027872234825
-4.242621233073904,139.87904365412734,7.986610823944606
-2.456733817874743,56.05798929666639,17.579788870735456
9.477791087853777,76.7944497858781,4.353099709506419
3.546273802864178,60.9710008511434,-0.5843887726926051
7.975362363360311,171.7232598836091,-7.381375108326897
14.208515866589115,109.98439655900663,-5.5565036976421345
3.699951838712875,170.37029714391002,-0.7959356257240469
-2.766017575224972,154.4624079272802,-0.3881688025313978
-1.6200689031703241,181.90885304433817,1.9156151525467202
0.08767242109777149,187.38539478388273,-0.15108854619575562
15.575780346927509,31.369837402920275,-0.7174826460506397
-3.55198005292286,39.83911213956228,4.453866572055906
-0.01580578797732827,24.850511188404557,-0.09379799302444632
9.35799432371673,59.146571440991735,3.642157019865002
5.284921552950605,120.62645107786858,16.99429191222969
-10.264901522136068,72.19646616562383,0.7520904659548611
10.283849149819591,185.50024282062452,13.754895618473125
19.34470283802227,179.99503524201523,-2.5125091135719284
-2.776414399490723,176.54875825966636,-4.205434188120101
-9.238724382359653,10.521231225219863,-16.85470688970428
0.5081827348004639,190.48712363811455,-10.194670230465213
-1.4010088699644272,48.41441043857873,3.12353438502911
-17.34097590903692,42.09067828326387,-2.2953356950797277
-3.485679993896614,100.011973824347,16.95669534946632
5.14105816326831,117.53211406558506,-19.015343382179374
6.514941954636382,173.92579520381864,0.012980331603523092
-0.5673226938073282,138.75673568998602,5.200079915501182
-5.722840470961645,158.2143120873188,5.7949174743656116
7.5535896429645915,31.67979818080888,0.7695175824612618
-0.21328440636090815,68.17425591476814,-4.594482422761401
-0.21051304056411596,74.80752781074334,9.96957506826296
10.119837403395634,189.9362732077464,13.99842285663422
5.7663442672309815,76.18783160957645,1.0106899454784541
7.977849324730196,126.08796719853088,-2.564120527018763
6.206378443879171,112.43636563756976,1.5534174980740214
-4.287918284161033,110.4164876968341,-4.504582592128223
15.100892905446099,4.460925947106276,3.8281706012532437
11.842213446678,94.87438243446327,0.6454168360815786
12.329499473243462,153.75118884276412,-14.333275679029342
17.23940316071662,118.8479371566596,4.19771789548243
11.666590925363723,132.70998032102824,3.2560838230989533
14.409139704750855,10.120247780947999,1.0662680070580484
-2.4534756249303187,39.62171337586808,3.269413414644674
2.871207784770939,160.01456399443921,2.02830642219902
-6.646126385470463,135.97772073466524,11.890567574245786
-7.5727165984184355,144.7558225508797,2.4826851483920898
-9.679326673724582,192.53918419104485,9.891185723939808
-16.136186099159286,50.6402277292789,9.818348627307227
2.0030162266414555,159.56739326402402,5.743058312191484
-12.555863536879338,73.15552802071316,0.41323483559361324
-4.2770700868344225,48.72863582646916,13.00342738044634
4.813196923068033,32.416185562645474,-7.361653568318713
7.370033454128664,54.508899254706236,6.038331308211866
-1.7247758149590646,6.895668250873976,-1.6865098970548866
-3.758158890189988,5.857749460388129,-8.6478830801157
16.664031062291777,161.4965237460481,10.739505310670275
0.0921186947369454,21.55434643666887,-0.07545866650601091
-4.032470985230958,184.23584289616696,-14.287376519549877
13.828429171796252,109.68595844516686,-10.845458862827778
9.72861645702027,103.38405720695133,12.511345767492863
-7.39049853661246,174.14631670484658,0.3592762188962858
4.388444669455158,198.6229014002011,4.493894928298155
-1.3307614725338617,100.01920811682436,-2.0689605253907244
0.1347271992358827,198.54384187278168,-2.324071114200319
10.036556434829588,122.98828348655417,-11.319945379729582
-2.0487024435892485,110.5998495406203,-4.51373927020317
-6.880461987117017,31.31919630771329,9.651973975022791
10.3951843530229,188.1641424671834,11.37952055402515
-11.571095181276302,115.773438541102,-14.682137671295532
-11.455422498806833,180.53669003243286,-12.475102626481707
2.4665134792880186,96.67947247480421,0.7146072001997866
-1.5674529659778178,40.561388609459016,-2.45629369603303
-0.6210207772968586,137.1205781839683,-0.8097897086483491
5.8007426718280835,165.3315446346121,0.46547555202775326
12.270593365717948,137.81822665824583,11.852172325613372
8.244621151113812,102.74945756451241,11.77842405781922
16.88872245590365,51.86588985382363,-0.11397907617633639
-3.793500744223346,137.564501120946,3.6118877265021494
2.6102000089733757,185.01052273219145,4.6017780506366295
-5.701417191341987,84.72419460061708,1.208108826753199
-6.911963269734478,118.71125680658619,-2.2742075632384706
6.156919171688329,139.63509262350905,-16.409252911091247
15.502755448340272,16.803069566177477,-7.222099441451152
1.9276930724630439,30.93915634624187,-0.8820541350593823
0.56358631445412,105.80859837151128,-4.424227276300234
-15.224725943136956,35.204351258936754,12.121312672298426
4.459965217952345,186.78349817815902,-9.528114620388973
-10.24151510855047,16.903499116738985,9.98725746006258
-2.727938269507337,77.96226357206612,2.9895484286709397
-11.702193826849932,183.0527753461043,8.606902697981486
-2.52022610467177,121.71887360807855,8.62218372705623
15.007761523492396,194.72793591859704,-6.066994838556277
1.2837378673243123,96.0035208018253,6.841551505070979
4.01386438557931,155.686182765904,3.797532208245236
2.1788803708815108,61.18322326684298,-7.964297002662628
2.347727097180457,142.22894297212264,6.839583350945488
5.502531951577245,187.39165592589003,14.167316054208685
-10.60867599454087,195.6984226193059,9.376270977512998
-12.351436322678262,10.88442465847901,-15.229374317173125
0.4805776396262522,14.773389996259745,-1.3875758205982445
-4.624356570507374,166.71686993347947,14.906512300979138
3.324325212197209,13.381224835232919,15.085424815098019
9.485252618184145,59.60158678322009,12.063144661414453
17.769303388588245,122.39527102040452,-2.1915718188613993
-0.2519274311550888,124.28014279259314,-0.3785353356998253
3.2911139938713823,150.15550279457315,-9.1914510516457
-0.36758021368270566,17.6217891694743,2.7991348836773695
12.46342507104943,103.91433763647404,7.153962260683556
0.49841948891184723,180.48785034581357,-1.150773277659765
-5.138256966828332,53.74576442989518,-2.3510582638175723
-0.11844706322690704,167.59769589957094,16.718406416949055
-10.200128445082106,65.57660678194577,-6.565662319040912
10.047371580305565,29.751024197359843,-4.5160280684802405
-5.054578362088939,199.6609553270778,8.640257862738316
-10.7660005655617,60.488025685786596,-2.457611742871411
-2.0937770797313333,4.228728357219191,8.64723724985323
-17.657542572353222,40.67654664216036,-2.3475893873986666
9.094444602854328,54.822671165116255,-0.1349159650333546
-4.784816024417864,84.4830525322193,3.997218117728199
13.80037590829848,189.24986790201586,-9.78182630793375
6.4734120065398075,104.03345213171053,-0.6035542775617444
6.256679705722835,62.552385262955326,-5.282040077747309
-10.308300338426854,151.93302454566268,-2.800294718642934
-6.240931658263509,128.03872354822852,9.34628079548669
-6.262220084710633,75.9764693171403,9.111823956916385
-18.4384945803904,18.769558978556923,1.786406542640001
1.0860566730487498,121.06145123034142,3.901610637923908
3.2785059910772714,0.3950357152523898,-4.2627322898608915
-17.455320016177232,80.56062082728108,5.7322146523190485
-9.170052334120266,16.79376194350224,1.3238833719471126
-0.6259648045292515,96.39213207570837,-0.0548471539335766
8.588371380744395,68.5034022917082,10.418334457208113
0.9367328155100175,158.85190645609865,-0.11361908451995688
4.518099160240791,4.584020779506925,-1.8080460249633332
-11.203663033895975,152.08706652466918,5.889024294576603
-13.765174393205413,118.92001542643855,-0.16192044505782036
-5.6250644204601805,48.958631837430254,-2.4931580373535143
-10.466138287146801,142.79492603960026,8.132605369344706
-5.9344118763780305,158.9425054048763,-3.9309622116543523
2.8835857147560318,63.264593177634644,-0.8853037805320553
-1.9458856395513973,20.94240349481675,-0.49011661625584646
0.015434233512349313,99.45030863017593,-0.48460921743841
0.036887597603042874,32.1391809869698,8.4350171849292
-5.957694755408339,139.60319022982122,1.296568367585075
2.6819353406512914,94.00569271590493,1.0652092419550456
4.71724921030516,89.88849694614413,3.2861642315517305
11.02882691117701,126.5237686303332,14.12774201870742
-1.5144615817480125,71.59802606552599,-4.740398498662545
-5.024326097266636,184.45370040023153,-4.399358578305468
1.6464069072878804,70.7981713544194,0.43305478340847275
-4.407526087140464,88.79869512927145,-2.966361378641492
-4.745724457174376,189.18332011922158,6.0338744955184005
-1.8826629478662122,194.74601398005956,5.49751336740986
0.02200698539479028,63.87912496360655,-0.8427328758912931
-3.6898906018602253,7.358196413307794,13.02393410034272
-0.8001740473444485,18.816791049413673,18.711016218042936
-6.793244179444943,106.94336316815507,-1.64847804534864
6.16889261636015,39.510264648850594,14.944821944900463
-3.591342563612974,136.98436594384967,-18.014428960618044
-2.7851634111160526,38.41390693902697,1.6327918221244806
2.9388706458644664,153.58273411244255,-11.34804314881204
-19.137865552555358,15.119001314259318,-2.21523235013926
8.470295162665305,62.955786622368024,-5.2230619766438515
-8.511549538385344,159.73258334642796,-14.830660960817843
13.956375959814997,160.498673959102,3.645016818714257
11.4006723576417,115.20721094782485,5.0109652946063195
1.7744795978721146,4.249505126462516,14.552064668962208
4.109025376321221,24.142905683820203,19.464412759230168
-0.5711094377787798,87.51479773537103,0.15662991322723588
-12.600271909267166,184.6125673222034,-0.9509697029239201
-0.02238900541878245,16.534478813459486,0.6724111992923415
-11.655605570159313,86.60429554772745,6.6638034550614815
-4.444935687461708,44.800924560015474,2.5939600409904133
1.4138819092009736,32.67797596933806,-0.6484885331452968
-1.5176017852809873,184.53616522303534,1.5005735999814716
1.4198071916864103,32.667906944671074,-1.2326908567349024
11.752386046105455,175.2494762718282,-10.309876721661361
4.559165669177429,72.34371561541033,4.9797169265978996
4.434260451739278,0.7255060538412295,-6.272500171751626
3.8030786942112433,140.40935345732447,-16.872971406146153
-0.6648321855010693,51.44385966093476,-0.14462375907570935
-0.516402156032585,172.5848795123353,-3.004310562362013
-5.317379305581952,157.95099704115412,4.774082144998335
3.643708455272015,169.2692078796982,3.9954293059482855
1.2958031911745278,81.97769558376552,-0.0028838695303860613
0.09977626199691741,108.35684237257406,-4.293846251109619
-7.277595013638733,19.603592963820017,17.45694590310321
2.9817761631744344,137.9327930605824,17.539339120596782
0.6479421008048865,118.30899225735112,0.16012257378578662
15.723063538804526,24.281322513386307,-1.5199150992968646
-6.913786361926939,19.9754082381276,-7.140462489380271
4.227747448125485,113.8596316150841,0.9364187007045007
-5.622553859930088,153.61541754203364,-14.208209211745004
0.9503699546151833,115.92670088661154,3.457620827945704
0.6366469881770974,152.98649286096975,10.179467498841515
-11.805852096750643,21.18688792394532,-7.558988040996256
9.718774370866472,30.45476481059126,-7.116278423308768
9.79044572171606,102.13784427985134,1.2580381542885022
-7.441284311141179,80.55150854601236,-2.2474279285780123
-3.572375849528602,33.356623089981326,-15.134970863917857
-1.5317652804862993,58.79756419346294,3.1762806547165803
-16.602760591998543,46.69865887421063,2.78755819333681
10.208504026446706,15.293872679308173,11.933341846098129
3.465007091516068,48.9351249651623,0.6662663520084949
0.20130670839161943,118.49531499635665,-2.854530829011431
-2.293525533143816,188.23016211972964,12.244653758829283
-5.800111315240607,119.25501328724253,-9.27069875414707
0.8259838166745109,2.6199310999313052,3.5095506718913656
-14.886108936520516,102.71199849933627,7.720225946201243
-14.702700160608646,27.358005049903113,11.856060669983156
-10.640363040774632,37.71051236537093,-3.403830664703435
-0.049712374414578236,185.25962955132246,0.2374423043093631
0.1190407619414003,119.37546752963163,-5.794443224461536
0.8339820362339239,128.63155142202953,-1.4228180231380585
2.1060437460219377,133.23090518568546,-10.486303263920357
-3.360214870850617,7.63203923757072,2.888455553417005
-12.97556678512267,160.53011055109894,-8.712789841778658
-3.1113228644988027,41.58356110630896,-10.99232621419531
-1.0682592359664542,11.746345953939553,5.42438849491789
9.3704090354454,183.13904718384126,-13.880663906783477
6.76773345342755,183.55005481271598,12.629060895002464
8.037308651166331,82.19793271018527,-7.101881031569354
6.943219467107532,170.8052630259005,-1.6558998303779342
16.989439212932083,39.168238706313204,0.0033345797822070776
0.10650768885324619,24.859927166103745,8.365639253916411
-5.032757430340548,186.48128019433366,8.579145440097799
-6.626415012858343,3.24078093929554,-3.922675762634081
18.610569652961804,14.349824464104666,-5.658024470029517
2.2695588137027047,185.18034019802545,0.23149057685488225
-7.886365119166451,72.90658614611674,-17.223050548430518
-14.618144559905632,102.13770846314935,5.872247677938938
7.461280036905761,78.612169527981,-7.777444627237255
-4.05837884834527,189.4156971310223,2.2095680465768033
5.319489012172178,17.430034426012007,1.9242850625150172
-3.096299521570756,95.58177573561551,-3.4782942804016046
13.34396760905755,15.62552102223027,-0.7144154242775024
5.587373309227759,100.9099286062618,6.465635523836369
-7.1947429049392895,12.31188701770689,9.444568974553514
-6.804259222313362,102.52534776911737,-10.185279608196678
-1.9671455315022133,79.89689583491607,-2.4506083678215123
10.887622187646707,77.21891751677836,-1.4073336493995372
-2.8458361731695234,138.45813509705985,18.537207750957133
11.118649014114654,118.7252640932113,2.6728239093949386
9.802196240656835,71.79086837251319,-0.1225011501891257
-8.797646810108821,187.154690729937,5.963174280642452
-4.507630893726297,20.20416860261729,-16.895263994441418
-14.222414436649304,65.85385443085647,1.1815051485853962
1.0126103572742564,109.08432750731032,-2.468034439189083
3.9999092772795626,155.98554389929623,-0.8573330483111681
-10.884429827959998,162.4750166488333,9.267650344140469
14.662792802655849,67.39619522475387,-3.9824285493869267
-9.177182598782489,66.45444694989804,-13.411199568367465
-17.08875587362465,78.64363892577653,-0.9968779193602683
-11.429631818080566,115.62662485789279,13.982967466514088
6.128039124128269,97.02262207757599,-3.1886586697168213
-16.846858250153517,52.9534971735429,-2.565657153873557
-11.996495948151397,57.71078073659519,-8.228791374939851
1.5921897745250402,11.747850272052851,-12.828649190634136
-1.5001328763961745,31.824187581604036,0.3734751424524901
