-39.75597048353525,19.486497874833365,1.7325216608299554
-0.8749253057340066,5.490139630245255,71.46000957526412
-14.862730797355189,7.789273311556341,31.845003456431215
-3.061115596899741,-31.467988126862988,59.44704081766867
-1.8585208750639768,-24.06714256500369,131.97100737616822
-6.4879618607657665,32.19864719121362,136.22951287484727
-9.389344465074883,-24.261982452811697,115.72078592228449
6.035915571548963,20.7091647249069,103.33225051361487
4.247719618422725,-12.704330046135471,13.336468788071464
-1.9325285404543169,-9.836833357833017,58.316152558964426
9.031295508935951,4.464593901547366,130.4176973216664
0.6152466290466787,-4.691167552531309,127.6095840997558
37.57957094367727,17.337129898833226,24.622714102543497
-47.90790076624991,-3.03438714553686,63.24055131559271
-8.965182153792727,-24.852101813692762,82.32780230204753
-32.99310883952445,29.85073372557456,103.14359670838613
-36.46532947035639,7.808136812215339,142.72856515222895
-33.520334812674236,-4.503761873253515,135.65125148769715
-12.332502626736376,-36.25797183853709,58.957672876495884
-25.122872634824287,-7.991651713022134,146.89421171767788
0.5734583926551741,-2.5320732995450594,34.222638461182314
-21.359831943821234,32.041928117002534,126.82277437655755
31.575407937953067,-4.017704334908468,77.1132898791976
15.386536432983787,7.383686888584406,49.7028124334235
4.586699166134059,-0.7354056955617095,5.855815154794786
29.21997638549475,3.833139588235876,146.4834037885923
35.53779393642496,-11.724541640993541,30.203918536601805
-6.775318076813394,-0.6880259885320152,98.37843735426627
-3.9041014759000907,32.24098921616795,117.60843120608381
40.03548973248388,-18.975310727840515,93.49127581753407
0.1310588854364145,-4.4222516564211425,63.64329779233703
14.906270648805895,-21.632853325661344,130.10917862553353
-36.384068988927375,9.639306115352472,133.66012911356023
4.1709382589938,10.308608789381745,115.08794852157675
-22.309402678880925,33.30801605176623,126.1949636614012
-0.23068933743601092,-0.7954310581776673,99.35613695859999
4.973471160682988,4.936377789602307,56.757080080341865
46.952486340734154,16.366564496846465,4.283487937096342
4.2871233231486885,8.188442745319572,60.26127920761832
-20.68389375922694,10.154521481100764,3.0807894634596655
-2.422141789688195,-10.792157126840763,91.86868296977774
-37.636742359835814,-30.498800427228336,0.47822068447832544
-8.427990907559494,-16.25845192241807,27.251038152090224
-4.27301152609359,-37.15900727660578,19.00127915476858
30.316029927059223,-6.862849408302852,16.64274576820622
3.068409414734668,-15.13326015155275,122.90850627178065
32.52779907810811,-17.07229815000106,6.371541972921413
31.197199324607855,-38.76828097190743,9.572924227100128
34.9979889129035,28.93852731860984,62.93217409757655
15.02371820154563,-3.445515764269268,95.71448573050687
4.879027419212593,44.47039100325202,17.98786023750163
25.44608148118276,0.2698562286942461,78.48717662229654
30.20473620189954,38.49552398713187,104.13693006427143
14.563922060930668,-34.17627184838725,87.50207852394911
-11.00372519447364,-19.757566867717603,7.475686790733977
-19.552638075768606,-37.83020140953066,55.788987882419505
-31.98880665147442,20.210902592368576,40.10936631474336
-38.53643592840894,19.188589931332476,102.35142026484588
-18.211128814419194,-42.052806753699954,10.669482363399657
12.278707327985247,7.555593724676832,112.23160329244621
5.140649973071798,17.23790960179096,85.43540089460991
14.246055312061447,28.699766597287592,100.65843274187243
33.99924040315699,16.539917084143536,55.43023841315654
-0.6061636620547491,4.905442428517258,137.32661335957852
1.4620936356343521,2.6186490840753356,136.63469598535727
15.671145237036832,8.88178323601463,81.57106758030393
-42.33545760971616,-18.25613993081611,145.18032105680985
-0.039343092790261346,0.0022576348456320337,146.40789872719483
-10.195970046223565,-5.269779141523628,63.079878672902225
40.166033600105436,-12.283917954099074,2.8878080749522805
-25.739691109845086,-3.3407578841227705,62.64514893120796
-0.3166820223516544,22.412529726189025,70.3347197779175
0.01499419057150043,-1.024517605985489,50.16502853677278
0.9947848791862441,25.091959604995772,75.34744531776477
6.6750529243872325,-23.380025172377934,91.15345427653618
-5.194814652625952,39.90803431919296,42.51186842931545
8.678195412274476,18.985964757732212,35.75787920283967
-10.74638639777,37.328128459631436,5.242072822679672
37.583981816312246,27.596999333850842,4.088123317702319
-37.957711469536996,6.314015210478452,108.77590808338232
-26.42725360314969,-10.78205407700337,13.260970562441338
2.1760183094409937,24.552819259971894,6.353878725615009
27.48095573950287,-9.527033808646284,50.817635151390014
25.48094811247518,-22.6213223187104,121.63893241626239
-7.495150048397586,-11.84422142186924,13.904380049119736
6.434347403859503,3.582880879051407,144.1412299798821
5.03527462708373,0.1956784612868431,60.82550780071559
-31.37811250591365,-5.248039689331247,114.67427226714742
-32.72380748893098,-26.579200733511712,91.19234757595562
-21.724759062096304,41.153558773480164,99.08911239350735
19.194987980852197,-34.842486626162774,117.2200827822881
-22.314703519973506,16.29224887363373,116.19252597837408
-4.661435722393485,0.6034936206195416,94.60905711049554
36.90276140967873,-10.051531671796502,113.70101028249499
7.507046339406429,-3.828905483298351,90.02279716039546
38.643106065217346,-6.577794446694864,122.66174753272159
-1.7987596199342377,0.011968876991814722,118.49714611492941
4.1452373190388325,19.921682990058255,61.72479292897307
-16.853847730572582,43.21000108803924,26.202480989971043
0.5540703957416147,-22.213054347009535,120.96051601120146
-20.454801158201253,-14.909729666977302,100.77876684965295
37.68782494516367,6.797165712484578,142.7732372295199
-6.358031269387738,8.345761951815668,142.66878809163336
0.20200383771163444,46.60320273985563,103.27741389922606
7.24595566464925,21.406544546912745,141.49707795145846
-39.60869353780847,6.943364132938824,103.37436991008431
-11.735475329173152,-34.79852383865136,88.68939131524458
8.464097682854401,3.729162711348782,118.31611608292802
-6.617902533169749,-0.7037290443477193,127.50749391520661
38.47842525441225,2.7427728294083193,137.27320162599756
-11.898956334008872,31.946837107747328,131.13446695420146
-18.0658556570791,13.198453341147882,19.954203721901393
23.416315198620946,17.437098931275568,2.6933203624059265
-0.017848736749871853,-0.21436120095724315,31.248111784365673
-16.65019597361729,7.709886989667883,18.549811646480123
3.682149942194278,-27.562017209392916,47.24102603170371
10.988598514295685,-16.555868086003084,1.6095224372674133
13.518052832254039,1.016665674416128,100.74197207888896
22.293314586905225,-3.5173448095444657,55.06793273403207
4.14684148327226,2.4394860114546324,40.26399348170297
6.0601683017074475,-18.86079922850611,39.62019203170257
5.638628922298773,-19.56622635776112,40.08876953428555
-4.618867073865618,-2.0970222377295777,137.0139524630295
-35.15035108404427,33.00470213605929,41.911724986523105
-0.014175360250350797,-6.292383601833497,10.723684328010197
-9.128794634035922,-23.84882541126058,31.87095250885586
13.265370450423406,-34.37568435537628,48.74836996482138
14.599690709964547,11.021874208006619,108.49939967465878
12.648916588175098,-16.845530345955634,111.98063974134118
-3.1135731871971934,11.984703732533276,141.36833482665034
-4.178376075478575,31.95025279841202,1.055248459343866
-8.606360355441126,-19.857021924915127,133.49566032627314
-7.806793658121795,39.696612931967714,25.20989220803893
24.217854204921167,-5.18063114562856,19.556220342453667
-20.872392431364382,17.54605029631594,19.686185449341654
-24.50539521602587,3.9445067211283007,146.18373987004173
32.37878455466068,31.546697318169667,145.16979497946645
-4.425640817993445,35.87477792226311,45.2660424989424
34.2466423947744,15.201910983017983,103.0299836975655
-33.152850123690364,22.363072282146792,82.6455328807867
-6.123619473988958,8.676262442032018,83.79591172472766
-4.340782704039334,-2.265458876375947,72.14783292797448
31.497283225453625,30.046795406744057,132.55873116222122
0.1832041455991625,-32.67742724365878,80.23571147482308
15.139148658005336,30.041850816047535,87.3802102116086
-44.58140880790827,15.943945905532706,9.826836731442956
34.44498214142116,2.182030713637894,63.60047282122609
19.605821318963162,36.76682380663002,134.80375962351923
24.25276506829096,-22.19461221549644,85.70451155472756
-7.730172645527133,-12.237398478152542,14.370102288222174
17.930200134237783,5.894396167632185,14.635510158419113
3.1197965837199826,11.699079394549255,134.0620200600378
36.731546349712275,2.8037917515051722,57.17640707197547
0.37413406396641385,4.359671605098667,82.17989925233998
1.1324463062278547,-0.12964418459664898,147.53445588055524
-34.26370164567141,-2.7344232801519137,71.56958540473461
26.698157090442646,20.347506381459567,24.966580682910728
11.914804555508516,-36.57714261966252,42.300323578241255
-36.81116520493727,-21.9276240190072,148.65313470975903
0.2548514808715843,-2.9345581044650233,16.56993818301774
-3.58942054686165,-49.54151672487423,12.462319429809027
-10.47077306749732,-27.078094106599522,145.5293574102891
-43.73610028915012,-23.17566126888491,67.07635612572302
-0.8409464464690218,28.943336738295177,114.75508267540745
-39.06861672345523,12.789043613084559,119.41830000187548
-18.4274148785744,4.012877247904559,143.38704037653133
28.664759441904803,-2.364784267964283,128.62571314835327
-7.435096220688165,14.917269218339836,40.920236990936196
-14.712893665780037,26.84537931266585,38.229869774777065
-11.342046173344793,-1.3630872225440385,12.446074183389866
1.9202654942145743,-2.6188080975577663,53.12090276157003
5.782543576906727,22.075614397651144,69.29797060213708
-4.51843542773991,6.746557328757652,104.4651831078413
-2.12327662885975,12.852920812646879,112.43202170559255
-11.617306361272659,-12.565732448967124,63.60749065950476
-26.64913893087742,-36.56114856317987,119.0283142854893
29.96092944256976,-20.760380296505925,131.4426842550192
-25.07315553168367,42.841457387779144,73.46590683175565
-26.41501241748731,34.825512543858245,44.64384643037807
-25.944923217577685,-39.97741299860351,117.87163907307261
29.643677669752655,26.399797864843457,101.6262677282731
-11.228112858577166,-33.94495597476658,44.009242573768816
-42.99708359583298,-9.68681535967579,78.7528276577078
-13.025660351529648,-14.995157440673708,22.12653667629054
1.976500748541531,6.335658655023248,35.5215674370123
-37.54732528528365,1.3364713617468793,71.03003301590776
41.70729872397741,-24.893114032914305,83.36375656016116
-24.038057186175312,39.743910360830775,66.80363251414576
-0.32965631104249155,-10.093810476735941,33.7805110800548
3.576751501285919,-9.80881110706537,125.01811405525385
-9.552378734442415,-44.90754053477266,10.114501168356943
1.4770427477864012,-0.7802904728997844,100.15295677179705
29.948735143702706,0.13558129560288237,78.76818640842691
25.04951771208783,-12.227403157695692,70.65821949649909
-8.516352683512405,36.12460587404118,25.071668745449927
2.263769884881334,4.637274061925256,142.04831253707906
-0.19900902269435497,0.14962031678764467,51.624070547025255
16.392505992998544,0.6184959249486708,1.6319747514859373
-6.737438483925832,-3.889162718451171,76.72311649833071
26.048138339241678,32.26118892262162,76.34897243082888
-10.026391613610116,33.188840042155896,94.29214114406034
27.89997313313844,-28.81864739185313,32.79873939885481
38.981677936669705,-7.567720238664742,32.51604809667355
-1.5460255369370899,13.149115229262959,132.77135141991118
27.84708875133664,18.483577502408465,126.60192909511407
-24.012632985269867,-29.99047057564372,16.2006606060448
-12.562643140991824,16.701893456490655,139.88607484040656
-1.3134035324648001,-18.13510460401229,98.87480660721225
-1.1011476767886095,47.112474947861735,107.93626528358776
2.030982954793933,5.170045771447385,106.25825218789136
-30.2856174774333,10.426645085755615,123.41232401363841
-8.514122144447043,-11.397262256469912,67.08029994578237
-20.288546287777624,10.525864908305945,135.21445070717547
1.6554679263686474,-38.17270753383993,80.74006554521975
-8.801217156017929,4.585056672245492,116.58327571335992
-12.2552232576658,13.028884652851989,85.82437177209279
0.08655576482255728,9.713594371017349,90.11655849347436
-26.88024482612057,-13.58145708005089,14.186232065435995
-3.580066870976987,-0.520860400976923,4.637114210542892
12.59213312235664,35.86704496336174,39.78260766144079
9.257935851268076,9.691456186324219,78.03492904615761
1.2927460203236194,-1.6083298616036845,143.45548893271862
-38.157641850261626,8.374070258989258,104.58888740946414
35.034671762001786,-25.44999827218075,68.29607026409033
-37.31442223846809,22.905210566655654,54.07295293509074
6.19521767344989,-17.3226346876782,110.18589151443227
-15.476363787252726,-45.101552228265795,79.84121638791552
10.858673576922024,29.25467420594095,78.82505020863576
12.73126080086049,47.918872874541364,99.7645293600191
10.648159436144978,4.143964766819319,62.95227952841081
-36.644019285671334,-24.080263471493463,146.56016288758852
-0.3112871899601293,-12.317611450851864,63.20133812954972
-3.8855072321354744,42.31447574231936,80.62349944558348
15.819325243745373,8.62632486178381,33.50939283837023
-13.19207860067181,13.710903612254265,124.39890488907538
-24.366571407238382,-2.7449239451243033,69.19320553627368
-22.912487751028277,27.853046460479852,143.52189295629069
16.18205237832768,16.440557026886214,114.72393185040272
14.298193987938955,1.665355126217855,145.1481175550719
-4.604170025432676,-4.348345884895277,13.316567970386862
29.51739001370814,2.8303751369024344,125.91019794886839
-4.103978698254308,-20.982289228345117,33.4260141257593
-28.033918300260463,13.203243507750578,44.28818539679174
-6.011044197093192,-6.591231774046856,20.24678781228435
-2.3511236590156894,-10.508335531297547,52.17360288912704
0.03501654269147052,1.9700325521896234,142.7840656902036
23.828361796879864,7.377114886054521,81.06757010130922
1.3588347500643856,26.547789080363614,98.99438979953652
-0.6365720448606339,4.6886738921352835,148.9470595196497
-39.651257913229365,-15.466550989807837,47.512989999118375
-28.25361491609963,41.227965884588805,71.20806535786157
-4.5196028425516905,2.7858887235644043,124.89836677336858
4.499736374883624,13.897024390279034,107.97903873591898
4.938978687231305,-19.184512268150936,142.78481612122013
-0.4082060850023524,-35.376877690902994,36.87279787089427
0.03401514455419054,-0.03645398738082409,78.93320978328242
-9.80863403384602,-3.6800618946165606,0.2907918844241353
-37.35970177572887,18.430409885779376,74.08044201493769
14.103398407995169,40.88648928127826,68.91257567101152
5.486874654732201,10.449087109419914,127.67839786707515
-7.3723998130239226,49.155657936601386,143.92247040541284
-2.272232617706221,-11.13234888628026,98.3041308477556
10.391718528910442,-41.482431056089005,110.44844987044071
29.42425953380999,23.983982577604124,71.17127750713831
32.20687708238474,6.237503356324426,27.836408721753113
24.31867665797827,6.528529029329892,117.98867415418684
-30.506318788991354,-16.671775896845872,101.66553201574003
25.948181734295417,-29.871739660520866,104.16875437807111
-8.69896725170075,30.616580196898724,59.036818736844786
27.16518665257513,15.365742644470814,63.17918645553799
1.8069515663578746,-6.737054171647673,141.95848173595016
-0.0573162708684805,2.0459251397207803,137.9992418936638
17.406659808031225,-20.099572361036127,125.96930946726197
24.21304109173164,15.27350889831518,125.11932222044878
3.76566402396654,39.567254125492305,94.93070160623697
0.9338081179819401,-13.41862607230304,44.86440154281633
13.411138676907568,-30.9957689590235,117.26840981959987
3.6560184617223435,20.97550791508228,11.431123011622784
5.079542933106297,2.662265033893469,25.622782090587982
-2.0246273844497757,-5.568190893392261,42.02089078293823
2.95399868178272,1.7021202267835873,94.56911526300611
1.6714966260978166,49.79507730943028,54.78952926981645
4.001002301210903,10.427074350403172,40.94349478748149
20.934176113192475,37.2558072217329,75.48932416953599
-6.845082416774379,24.067770818188848,73.27260448790803
7.117989621265648,3.9912012397459176,48.85407953538958
-7.854886003594892,9.532226039229522,56.85123870082115
10.018383923859108,-2.2339395236963577,78.38235913576574
11.166022383077683,6.434501058358838,119.4098264959297
-1.334059124344829,-11.495995089423511,69.02601482831007
-43.355666361061175,-15.117568611080545,55.90765640297286
-8.502141987317255,4.695795863712441,116.88897397951067
10.449592958809363,-19.41596388558008,50.41837552038848
37.83022442034121,-2.8826308785617534,120.05341743233211
35.07178780277231,4.203573712230146,76.18964066403619
-22.172080471807725,15.017836049173162,111.27771680171675
-4.596960734052569,-1.982220849646354,14.095339460052331
7.703536660197238,2.347854491352243,114.77340586075047
-16.41611806385987,-16.403143370799718,84.24815341307207
-32.9401495771834,-9.306343363970583,3.027086016305691
-20.870509094984943,-44.29613106002203,12.827190268491012
37.799612781310714,0.8303507923177855,49.51174710657552
48.34496621310038,-11.896664899280259,94.47800586588716
22.564987528340833,29.013732572365964,104.71014015166064
0.7920835697601859,2.3132570546199616,33.188490907191174
13.023090865430916,-10.970910952752083,5.559662234731633
-13.302631471190962,-47.35499036484512,90.11933873414642
-18.010950974236113,-15.199836400058839,118.24150049590341
-10.0465262942393,-19.499608856450145,42.41444068376022
-35.18524992426707,-4.341792736700552,26.651192764855196
-11.896073107774294,-42.288926740498226,142.0783537917228
2.8827048136164732,-2.080161688537027,23.33716495092834
-35.350307660695385,8.42519458465385,69.74389411202384
-31.177295964248234,23.744650171108123,132.17472575859182
20.678325002457846,23.010949125982357,74.0372358398243
5.1875362312467095,19.18080231060683,35.65499595706175
-38.94675611326134,-2.939922523237213,31.10667335574952
12.88899530195965,5.381171650677469,67.38439096419312
3.7093850995223154,8.646384228592778,114.07540026304385
-0.6127002422282963,2.3303899259819096,127.32429844035016
-11.533007747735358,-3.9941763936863515,18.5845897368497
42.89808761481795,-14.921522788517802,101.63168060459742
44.158975922286345,23.22290462433676,41.97976470017004
1.0849343713438546,1.1890196108065045,9.991137528723797
5.38845337234551,36.52028782207714,30.990211073267982
6.615831731447635,2.132908744929252,85.48156079537934
6.8189121908174135,-0.014581396488149927,94.53334509576862
-36.94800188429227,25.56065466746977,5.181839594884452
-24.910213009589953,-26.251341975433245,19.884778355557426
19.856019530955386,16.68046039798546,91.22180867229758
16.207651943475852,8.204515675753894,137.6979770077227
-11.689655637622579,-41.723174079685236,110.88870155842295
42.28922993055578,25.73983705266134,34.56677129064075
42.506290530704455,16.554420552830717,141.26161597422862
-4.1375788332829515,37.482882604032916,2.2572737354574657
26.09042597817127,-1.0275612041245903,74.48317861437067
17.407644525435877,1.8521339297569246,109.26331195223624
29.285229961149557,-15.458354799833401,132.8928338270339
25.068654109054492,-1.61654010758316,135.59286518790145
18.966505143767357,2.256942412549392,90.88910634484274
-14.612953551867365,17.9081914571733,127.20826936206325
-10.400631231001778,14.993213895268102,137.77327539834232
-27.27272820384794,-17.85412410600717,84.41652164201524
-15.06210789906887,11.606231436780433,106.04384364732276
-21.79073760408319,5.593056889582139,46.822082127414305
37.5015388066897,30.6231568135045,56.9269290730561
47.547395470252575,0.8384840054274485,57.33208246748262
-10.434214127671511,15.066578618577777,64.09524378050013
-0.021219553135944903,-0.04230004377916202,100.44275243829782
-19.430305158380317,2.7712077156626815,43.30098822268839
24.101949734636236,14.91086372933523,128.7989079591186
-6.147439586941725,42.99348038380813,63.87683307810077
-13.175019757300413,-4.817638469448784,135.7631012274979
0.9187953378924025,0.05619171304038814,16.132094033407977
0.12527446027651074,5.565246068112587,6.794529899691787
18.738360948061512,43.57194654173969,38.028192709442365
-25.000819040637936,-14.102626193765918,103.76943276650105
32.34663691867562,-10.30942239930209,105.59099091863428
-16.97787668919323,11.737986642735436,60.64563973196988
3.6205057493534865,10.559440080957309,88.09638813753205
8.691126367763122,-42.47378135247037,77.49192342651857
14.484389208138454,13.418688916151227,12.374714129933984
20.48385344336774,6.3071902038429055,28.063747986842742
9.115520987184313,-10.62785421776232,21.37694804892413
-45.73603378666417,-18.306534737508354,132.9099723763049
-27.367614337343365,-28.253702178486474,88.69545655684509
-28.065700516583426,-30.844075101974397,61.449962624617456
-6.944319207362575,14.46762616111828,4.0554530862927045
0.6309849685414339,-0.9437155501916076,84.06422080689485
2.325245339212137,32.80987699956332,109.86246871678934
1.9850482058617867,-0.5575346172149341,119.28235254680195
6.295502605552081,17.220164433493764,10.936117421270875
-17.04316725720846,11.943179195223195,63.722829632373376
-7.634783500276482,5.634405591124074,82.18352727953898
-1.193183312228554,-20.13294994228251,81.90121349255328
-27.01288222721855,6.185974034418947,115.77767387505068
-19.696841445176645,-6.249927362026854,32.09034696802004
39.295271558868684,20.28736187046208,131.02952617049485
43.26790473290391,-0.5633707886469346,66.64553787346625
-1.8805044882122444,17.4076546530107,59.455638302901214
25.283359123367497,-39.6324087832784,2.315425837382634
4.544611910447854,8.93727004850651,99.94410712538172
39.63459197442154,16.21887178090782,115.0748452035571
-28.755390924597847,6.905081440110854,107.12228938509058
-11.504689479837074,-13.84929931487383,149.04411957986176
-8.967769204772678,-27.902964692934884,147.71550347064726
-6.2893157528332635,41.70659914718838,56.08356752054708
-24.918638247613515,-32.67196617706232,149.94893617437626
-10.447262936658731,16.056159692300618,5.545012517584608
-16.00492166169183,-7.238893256069345,92.92969526624417
1.255642134990309,21.475474455601685,41.80434310118621
-6.980338293312602,-30.55086472113073,42.04028141689419
-10.33564868214937,-19.20406673678622,26.73249505469892
4.494891426797046,1.1389031957280613,131.7671260311784
7.211918113425975,12.131253778455132,109.92835674096713
1.720594447773519,0.8203990312513867,4.3054981477388505
14.625227066980973,2.0291217818539122,138.87818383712045
10.462735225256637,8.558882074438307,52.27998489316346
-6.2748508875405475,-6.623533550967888,144.39765299669392
24.397054771331433,33.96884452183309,1.8829394126562538
-0.7182034524270482,1.128531156064388,100.55409184389362
4.201631205970718,-4.338925658331638,72.86663366785463
-19.282128062892465,-24.878824213305865,55.79358562734329
0.9621109212014426,-35.41566761324027,100.4426397797428
15.524425410212318,-35.15804390745348,1.3279760897537407
17.680664761962678,38.77594563454315,136.8818403548398
12.612778854557785,3.937076050361471,14.283627443214348
16.84315101778854,11.87190284831883,8.107056504201122
22.48689148831791,-20.576656087352536,56.39192367954682
39.94850829683095,-25.95218296738955,73.45175816747515
14.377134799162677,1.0686415623583592,100.1142307482073
43.30690298997938,-13.916045221685165,47.90931375783161
3.0669698441812514,-8.063127385172796,141.24171372212163
-22.117779666604044,-2.7217237658081754,32.66294679702481
11.490190538364246,0.06531812953896575,149.13227135637865
16.550764574681367,31.365174752423886,42.648481775060716
35.23486119646496,-10.15716767703684,19.51834571037598
-16.44856093592277,-12.103487470625355,30.490250860725617
26.133081887212093,10.060763143180344,121.38361311541279
33.48251064678473,-26.45384657469779,54.6295234632648
-28.08351211212859,-2.939097207401978,103.70272823255777
-19.257021378101893,2.2595826917312962,59.486894315902035
3.281597732920637,-40.9194113446673,118.1648412698572
1.6888059478658692,3.220314863816303,123.23440306389499
-1.9466434566817679,-0.6318391792876044,138.42110733600808
1.6867580078621078,-24.01063476407669,19.444690657123694
-6.473730316735782,17.784626208864687,102.25912115488825
26.37756622611725,-8.526868571534683,87.89324284246841
-28.767478819410623,-0.8527483894411604,117.51988034774263
22.53826117963556,7.861817103864603,91.20498302732103
-42.81607872330154,7.191237038014213,48.487493364101326
0.8054932443799147,-0.07906379217737447,46.04718395263088
-1.536294165658076,2.0515397036271836,65.96835955273251
4.0343427451728315,6.081745689540648,85.43747530173533
-2.371913542568184,38.971677744167074,41.22266425752592
-7.293180705845292,2.7432802490515136,88.00165561425263
23.904271096623113,15.851251827218633,121.21590757196995
13.997096612358785,0.650632192766519,85.18705331533891
-0.6461509707521047,1.7188957415582005,120.00865636938785
-18.856719167694163,24.8134322052528,81.81950511900365
1.1300659994993671,-3.3361586565044394,23.775517418067736
11.238500883632147,2.310585824100245,108.35384918980985
16.383531113481983,-24.581810700539346,62.11512383763317
-10.762373007440054,-21.882362277837892,13.339861654176898
0.22828614845447018,-1.1008901647522098,18.019947432190875
-3.74661157439484,-11.125633075825297,83.22075572222477
-1.1185152394460838,-15.76909163790417,82.72954551890736
-24.26576484972557,29.78335666051959,105.16188575739778
5.834178762076394,5.19525688698082,100.65889268433256
14.097792194776655,-35.25819283600917,80.6326643328726
-14.190458402608762,8.801427886494702,60.55962572001455
5.244444743629903,20.021546717922117,128.42340436981684
1.4166364784810517,9.883809890125871,19.36281379955264
34.75351044242723,-22.132370607354762,52.094183979754746
-20.99929364050197,36.16558023555226,100.70578187223035
39.16400227971102,9.416840893565265,37.11146025703703
-0.3309953443734647,0.737145948553466,85.53171762055446
5.241972108306022,28.705774905226807,31.97322389349314
-14.896982392408043,-47.593152247234606,139.3275487637522
-2.3411518853268496,-6.244213415301848,64.22907937236272
9.770600365745237,2.8364589623812,67.56267984348507
-7.229611913924379,39.89579112498479,34.20416454486522
-22.21592249335309,-14.10085190274547,19.475023033296175
-7.46444487801302,-10.643899024692654,119.26607333298351
3.0401958250851684,-39.56584224906627,112.89152480701577
-16.169636468883738,4.3767090101403845,136.1809028980413
-11.106590975123815,-2.462526373938604,65.19422585581783
17.988140207217874,26.817634817314968,86.68128111738686
32.74199488032879,-18.217509407349,107.2503096529074
34.505508927630615,4.208697705915052,43.608964757997654
17.483908738778183,20.851969651682406,89.59670908716497
-16.415940371377573,6.440403552576239,76.38821792107272
-10.459914969485926,-43.01759479894966,83.26434376672118
-1.1522701471898604,-1.6384730308902349,35.131657035539774
0.5575409165632766,-0.8087934712518432,141.01660636639
-12.712932115986977,-16.661059622170818,76.58695146474759
6.594049369302173,13.76143885174196,67.68976838015932
24.92843985225549,-27.1947142830964,71.7816218372645
26.317528092666915,34.31636327201539,137.56133728156357
-15.250803637359862,-1.283881208790113,130.6154245885984
9.011470565243737,2.2616857626581215,137.8481494710472
-29.194618434015567,5.598424722934789,120.34415953003408
21.666863897615823,33.23764211732843,81.30494360383432
15.209223858764123,-37.050482612253155,29.42308441033478
17.846865549125653,34.872489550696756,95.89475036296908
18.719789713042974,-20.18265193917697,82.39981353756318
-20.089124274038628,6.831045408717902,139.8896465720839
6.550309000067321,-31.566589066983052,14.598693114537776
-1.9503501279535487,-1.9529551010382056,113.0529268824727
-31.04975160471635,38.44240548965746,113.6839823151036
5.653536181810156,18.750431664913688,62.18503880047478
39.50150276603474,10.609962556284986,91.91916483724981
-6.414384160736348,-3.387133283309265,48.65253115417957
-0.3255686229615315,2.9052357831857636,40.47915419648842
32.24765909844149,12.425863823170403,84.14984971591124
13.156196885896518,19.464144491706747,40.438282038536
-2.546917632293701,7.68833940529576,104.1556856868778
8.883330342695583,28.96733690451041,53.959693779022125
29.267876011883306,11.96938700918076,78.76464878370315
38.04470413194397,-30.028458511528846,75.56577222171362
24.86864935351135,8.850387863581016,41.31017065576123
19.331660389091844,-20.742384782671557,102.12806694659655
7.172582526132797,-0.5186393949482349,141.09165683350125
-12.21396150681283,12.758198883971811,57.1119217953445
-15.004926014364106,3.900896235171209,72.04764053992366
0.9705648451566848,5.47166425559177,36.03151958067384
-5.472048961059614,7.441106391914153,86.83706517316294
18.0654396564775,-9.880134917330183,27.953333153003157
8.760594430283582,-24.649437980649967,105.44648143662678
-27.479598840923465,-26.00096237620535,145.48556747482226
6.019733868734471,5.220076559336983,70.92209826149062
5.140963375027922,2.5212463469372053,42.91758417595736
18.898213942733417,3.8432232494804284,123.84838074643586
-1.7002051210599693,-43.94109732651103,112.06493568110571
8.827296106490074,-44.77352036740586,59.62807732623308
-14.783177683175492,30.672190421968775,77.9478151102314
-11.082623879877037,-3.7394918785746833,73.60064582863265
29.151360438191478,31.05906007773294,19.363334792117715
16.614716343805828,20.890854343353933,45.879039394582435
0.1344525741345724,0.3370548693427551,78.35487107005068
-10.929739043866308,-5.617865350829208,117.23440675545815
0.9037959443286727,-0.6513514814269533,121.25955707037654
1.9987368180636746,-1.2696692603979955,51.00671251821078
-6.140368265925724,47.31902436778727,134.59832751482278
-19.82244051386101,-13.124972052708912,109.3018756394634
39.90745788288783,-6.731866595997879,41.79784051230323
40.87059034501965,-6.374532941866454,16.534559515291754
9.07741894766341,0.9240812421387278,27.763657082375754
16.465176309399098,-46.89939626434814,78.64194180233396
-23.48414780658808,-19.890750637244107,130.61735978375896
-11.67456225118684,-37.29848767006809,63.171601684048525
35.39897832574405,27.07624133335919,28.75558584254604
-13.791164810760717,-27.401938044730656,140.5762829447605
2.1032081814719223,-25.401783319065252,4.757189630290926
-3.1682070345225553,0.08329412047902762,20.869656153259353
3.5221512617244004,3.894030007019102,124.73418360888857
5.977576256555237,-14.4588589740322,90.69356506875401
5.11543934281694,-3.7245044814217807,116.86293047744626
-3.5196281942728924,16.073905556673537,100.75259145521895
-24.304636586220745,-6.693138448056273,109.23345145143114
-12.320986825733124,45.45105200295017,15.949820907199786
-3.8193249494681645,7.12358104812315,87.89588520423315
-13.103707469015037,-8.33401062821177,63.295384575446114
-2.7416856187173826,25.671946661920686,115.2054192877258
17.92294239677273,33.79825403215607,85.93685871341464
-6.00619501299964,-43.76028395001487,34.43327124882534
-24.610428155284662,-7.142208211728853,49.29393608838684
13.191626511496855,-18.92017401064583,41.66980567008501
-11.49971651894134,17.30558789284818,99.3205928224989
-0.021315208216812927,-2.4147931878898747,100.58020523554133
4.058079004580589,11.434879723513676,50.405822192174405
-34.17816973599435,36.37271165888938,124.490291937562
28.679413186703517,-13.760495547798044,23.80569148924689
19.36465094230223,-11.83688353196366,92.71740788163721
-47.440796316747004,8.63557566491805,111.9900310729695
-35.35861068639248,16.880501606019504,111.7041100563547
27.14386179721552,-31.81480516713962,87.71874483534133
-4.220151566759149,14.898140466005845,68.68881213856464
8.812563995210787,19.438795838067623,97.21076009895552
-5.782715244669118,-10.138586971331875,56.13760093451168
31.96511868405739,-24.60323764072635,100.6916805729898
-18.670257162238954,-1.0768305837653271,70.65298395954811
-2.6120522604020238,-15.503553156983122,7.907859779940852
-39.716815179010446,18.642984650450785,74.17381963608446
12.95484379648237,-5.64294979937166,22.74466260210602
31.506966866139066,-23.004764993608816,23.24832752230865
0.589636463575042,0.5692768765309419,133.98019090662646
3.0723291075528723,-1.576139294906818,12.157477629882868
9.403914974417221,-9.538294272388033,7.313710873520662
-38.85886738787254,17.789654392303923,142.6477015258683
0.9143956994771764,-0.5405069169228893,119.52804484764381
-12.109786671870198,-1.9587743947638474,130.17210291616883
44.7698208980227,-22.085308055907372,49.10573238179075
-23.763454127763072,33.22236813464905,69.21071016685978
-0.25188793558874184,1.6329883218069,113.94339027957052
-16.01838788997236,17.909372878937535,87.9159239915423
-25.50550953868396,-9.864081735447119,120.87838277448057
18.639902721018995,1.3210058678855943,99.21501012705838
-33.38122075358612,-18.00516090075396,55.80811712448476
22.808781287773076,-7.916490522387909,69.3552728125877
18.009078176496434,-36.45505295356601,91.6227590398065
2.1153127165390786,12.890868662447534,68.38159665815647
-9.794065397239587,-6.273560444777645,29.68851968356588
-14.451690486186349,14.141192572943496,44.26684110268053
-29.491772337636856,4.402208981372053,21.120455557789064
-3.3911187460514056,1.4573674278065774,73.63663013362849
-0.36130855102507387,0.6928476865862863,76.72450426637351
-44.662454052797514,13.98315216451218,138.45259147452435
-12.883177284984535,-32.84835748170098,105.73421008491948
-6.2270210275230635,5.037306466580746,95.80897497058109
-24.304060949413184,-5.052663072093712,22.342821279163726
4.229941849112068,-6.771341960462361,81.74459954961047
-0.129498329512086,0.07550040712566511,100.10449276758428
-3.943523798898279,12.961803022586746,13.4685548288065
38.85725852224946,-20.603269240815354,18.0751399995868
-0.8248950377635874,-1.7945457224047237,31.550276149662608
-21.00257184365235,-8.662207510500743,9.239264960713045
2.1481576820638124,11.590533602788655,95.83619730992056
1.4769163531119065,2.259501996553807,10.701195754343928
10.310550682918466,21.291038073358262,86.10959233880611
3.8016020759760485,23.912651363541702,146.83895030017285
-2.897803511507481,5.678352045641954,14.065083511536237
0.15435044185233893,0.07962183888226916,11.914008171397972
-13.504669295309986,6.247439461896656,117.40965179299349
3.339045369774585,4.861256556944852,73.30139183116624
-0.4293943629216922,-0.5204080362131004,124.7383897088765
-25.730317882016266,-0.28794408397324206,145.46922028611485
13.342638285039737,-4.178695087473691,18.11688584344739
11.731782193304781,-0.5301521841424758,80.62212221010348
15.28871393470965,14.124347424862616,75.01601681817158
-18.089797857313616,-14.68613889003312,116.97130997995542
-29.439937335255742,24.864145237206266,91.25622481520249
-28.815077535950422,28.1582985949081,35.28408540003733
1.2197127631958065,4.576014851994027,65.86789842879863
-18.874137551774187,-5.846198660308911,21.63013068365395
-4.0055344785318985,29.092241084050546,148.71569934558386
-3.239309372237277,18.52677436139435,61.55658089587098
-2.5748351840559334,1.502880430537597,82.0901015784275
-37.44467815247182,25.665004292318525,66.98393300283954
-40.75792439586703,27.649984631857226,18.669199913537327
7.698230554482271,-14.2547274511329,131.84635470398666
4.610806249599178,13.657841458197455,6.101206606476511
-13.142568255011055,-4.535276425779688,13.169597914190867
-3.308979088338381,-1.8214499077108801,40.94137678741674
-10.904660049213824,22.03519056541986,50.00255112767793
4.875063170413207,-10.190182613034253,91.97413449794955
18.53247053542199,6.6661749734210325,98.17858333709876
-10.4145832201364,14.327364651943327,37.157030742282984
-23.403364254366053,34.39653594381254,142.29689410800813
5.134047499926341,2.2525615755152057,129.38612474615593
-13.293656801490155,19.962288883514297,28.372799538791078
-20.038803387932845,1.9027863193387369,38.03014234115715
2.2546669767483523,9.475569813315598,123.68924392719909
1.2464371193119441,-0.9221674354782898,145.28540967450257
34.9073392603983,8.22081036898639,98.03179187832966
6.407183993958752,-42.84200066677945,24.819926328692908
26.994196412181545,28.61573480099871,31.40056006869754
-10.639612642642202,2.3557861362999026,102.21270529692352
-27.202037397183748,27.73055033756343,77.24767225013048
-34.5311770855668,14.93715745851722,84.48759537788726
-35.08679641691137,11.28339271772216,140.3947625242303
29.155480986173462,18.225914129652224,74.76262051149382
1.1904959038054523,0.9326642625595807,14.980076845823053
25.47028268667287,10.46770022630329,75.62387727556917
-5.851293882117875,9.871969834877623,63.716790218130264
11.987076156657302,0.2804157548818238,148.92731663580352
-5.9492247196347,43.4959847191951,62.10022635578725
-6.376653660239666,5.704297552189834,64.69194688606554
18.434180804993055,3.1005985148123494,94.2363141071718
-10.24405129925526,44.76795590205698,42.226228071191066
5.018647608071252,-38.617471949919434,60.87174834175631
28.433860283290215,1.3663126767577385,76.54411676468882
19.368535470879838,-1.549667783174999,75.10480742221581
-8.688712555652337,-20.928176576842223,125.48611816626445
12.805896196681697,-12.306835359551396,89.85806387316835
-23.739202522839662,-10.457277641078232,4.069216336168491
0.2904466253374038,-6.220644195055381,26.806807090367922
-19.120949256389665,-12.84938994472159,10.62029326783418
-31.96783513490036,0.9919126674328305,31.02898082272945
21.809679721869426,27.633550707612255,76.1330628091578
-4.241276249978417,33.860616264485614,130.83838355117254
-4.221513741458556,-10.651350110370885,65.6290641312689
15.155480862219585,-23.57813853863887,68.90700697118442
-12.46141498406152,-8.874641509472358,92.59665235514653
-16.782936892681693,-12.194763177235407,149.45566405627912
-3.4583240211914523,-8.114280223437582,92.75396237380174
-4.478387500348745,-5.185056881514168,24.681459161750023
-40.64238488271465,-24.718933049084367,66.31958965378263
-10.528141245997936,-21.420316156059517,33.14161750138038
0.08704502610998863,-0.5465295297351055,132.46035857833627
-11.104486279920943,2.7261660350436463,44.65440581654036
11.443643003871664,-2.4144431555182964,104.95760680538024
40.05098838691156,24.104337780701925,127.86872914798266
36.91555777686201,4.9733478328279555,57.0023037618335
-27.224560159913246,-19.281865550239445,99.486392317267
-30.795762906687237,-12.895996966665228,68.0006076921577
-19.790675673264165,-15.513648058584105,100.30781046783663
6.622827720191952,14.904225666589333,110.31078086192284
-24.588249650636243,-41.366999167429135,137.2095012933654
12.385964549369813,-40.74740475948802,1.844106358711578
-37.764161517716445,-7.438692285918412,124.02108834379862
-19.2271167499495,12.582655560890045,94.6646852408624
40.637144493894084,10.911124981208522,82.7910470987899
32.41842695764187,34.976974679129405,28.077734364506192
9.10296478140753,1.1868728291535298,21.056021223905287
-49.65793222884001,5.370227526636177,44.46478103386997
18.96185294753626,26.486947206810395,60.405700091353346
23.447284382218744,-1.4563436690653289,93.68447953981106
-23.969059551575917,37.31054378805507,137.04822628944007
42.55628221394,2.3963710603874158,76.91628830159421
-4.132017838438596,3.4921639850723145,37.390517883246964
7.764076039194215,-23.674808503963057,102.1232420610955
8.977167454788166,-7.222063422489378,138.7995841897812
8.329299530235309,3.4722725262438727,10.416043928047975
-14.237709579439773,17.909959728972925,138.7952870091145
-8.048388328991948,43.05986914854498,63.28074138569045
-35.87263984712252,29.613826948129628,3.6287232336761512
-2.2714655473069905,29.97122820778693,40.548992159533015
0.09895637210971632,0.2415184567065426,80.28135672969024
25.055826914351563,23.33159910101461,65.77018345550879
7.816096755815537,11.926592165612126,149.10079295875184
13.578926401200167,30.36606285052503,132.3492143298694
44.4202127349782,-6.315360821010686,77.07401918660632
-0.12201299019392761,-0.44397693922145504,122.70598855929433
12.94723544635619,-23.715021874015818,90.68617220609285
39.15148289265717,-29.595315383933656,116.00709062827696
33.50087994608323,-3.3762146105667616,4.925321663119414
-23.68419806018105,-24.15542855888991,1.724718915068646
-31.4641002644933,18.407293807877114,30.768177397141354
27.299122204822094,-5.9495855989535915,28.74373835854051
14.426045856715419,9.468618915288598,82.3399830798844
6.403912864365913,12.981493289468263,126.6148571245052
1.7667626597003572,2.432170298174258,24.45333542327418
0.7690889316162162,8.220333342884626,89.98487307624299
24.298612060105555,-17.944371429965653,14.064226213745862
-1.5185760222058187,36.299165909990144,128.58131722863575
19.554443716687253,-7.3109279721223475,42.07717078751922
18.308777506839597,-20.50969255764695,22.47365664177868
35.66885421290463,-12.292709427077659,88.9823409993665
36.30745530481979,5.568881897792351,96.46273344042599
-23.740346529244732,14.993510204510285,81.21586337241725
26.86573401937577,18.294807913012736,94.23901639989545
13.595404970746317,32.42532263818631,42.74900963306399
3.8106973063524787,8.89787169724168,148.0320486401981
-12.86635499165939,-11.156256075739398,141.86400754756366
-26.240038116777203,31.644589619411803,9.420446517335018
3.1447791382989077,17.555058732161502,2.4528235517638777
-16.71322719012278,-8.760432240422753,140.56093363433038
4.335765915844496,-34.39908202501555,41.263132256132536
-9.015613604980095,15.248218477430163,148.8957580069702
-26.82683437246014,5.271339064702057,80.36077962203515
-20.266256005715896,-0.5087280792424665,99.52319636999759
25.097011459782454,-24.136204390998877,68.47427949899186
11.549949502367738,-12.164140859252075,124.86821280242812
44.19510934996641,7.634419239192194,83.00255543637708
3.377155764878453,2.846858510698772,51.11394349319992
-13.428280092359348,11.398247369798096,37.66850630448767
16.222783653827943,23.742103004007323,61.01107151676554
-1.822393287728675,5.382632258108395,6.07530761600793
-14.990841651829031,-7.2573213370663945,44.692108192285964
5.448762603338905,8.84292388982296,98.39522453197486
6.313571774051006,2.749405534700276,82.08135357771705
-6.559633879873414,9.699917978928173,11.655148585527463
25.239474951674268,42.13480379385932,127.58082490872276
2.0233163502020957,0.8616333554345678,56.47078621171151
10.287639327651656,-14.739325197377509,18.204265281262543
10.66024413078985,-10.348690719776311,107.88667249716914
4.937002700142029,40.890808243009964,137.2557578533998
-9.85989198559162,18.23570090186968,94.91957076325977
-21.96915027290041,-17.24821090733544,2.3474850116730117
24.56345317812507,-11.900619253250973,124.66084391951216
-14.759501423170361,3.8157683475389024,17.4261778105551
-42.30931443919732,-9.631507908467439,106.0147511421542
-7.764356624772936,-6.65385717628403,114.42472124044428
-5.151616430857057,13.80180275344893,42.32824131353164
26.199602372649306,32.26264669050876,125.4853616455473
-27.54373974012869,-6.448432346948822,71.52704134156157
-0.08767562583683955,-10.627412855789329,126.56754554941962
-0.9394304981469594,12.77486507331092,54.84579179201653
37.60435912974978,1.5708211969405288,105.49467346125371
0.22772151740701863,-0.0631386515079898,7.467004671190558
-31.934502725376543,9.516576187425487,54.784175498055994
-9.326228055623055,-15.142499114095338,116.9040336809095
-6.706121224008376,13.612438328925306,44.468968613454145
-15.042015202280304,14.250066572713658,138.83243174479315
6.084146119011214,-1.2159572376746006,15.030490192562718
-25.10411378697541,20.984451024720478,9.260782570507974
29.623158650542162,-18.673941679860043,62.40234127802894
7.111403317658275,-18.56205266883269,72.4352961412171
-9.137548043808115,5.892952900989735,42.83510124304921
13.975529703141785,24.64774530583076,92.18933172581771
-2.1348590581915166,-1.7817068560071392,101.57780854996388
5.5962769832253425,11.562636393012921,97.04479591037126
2.054042592744942,-6.452266746209208,117.91522759987524
17.24413731299746,-43.98170974715566,61.64566159097439
-0.7214758196720722,14.410500907454864,0.25204947116130305
8.474565883577545,7.8058320075677265,133.70667784790555
22.992418029327286,24.625248410694308,11.758372519506116
-35.753272010667075,-13.912450661049604,140.72728069901277
-24.021602825322976,4.1570000784983625,47.10871721372349
0.0709197852351579,4.049310577958295,94.27319207222745
-10.753535580257408,-2.88028758838386,119.13152178298115
-17.733988141581577,20.22469678270859,27.409299900771224
-12.411941478623184,-7.156496266339141,46.14361315104692
-39.6849839749208,-12.872223722813708,112.34957960935064
18.30089127342512,36.212843796520644,84.5783982262304
24.109340514595406,37.8967721475184,144.03780068867246
-27.766681913692246,-15.470568093534759,124.23245388188914
17.03298757035517,9.108840182798792,91.28327772914541
-28.138330296198383,-3.1821836645885826,52.04991055369245
5.3016498731888575,4.737173916693443,46.901397463227184
-10.142378076037781,41.452910721946196,61.10606163555327
-6.712313519329422,4.962410668720763,2.004279485107663
0.37938711608831877,0.027896204781876485,2.8095821803387544
-18.18533996962584,-36.030151849860566,18.274581444268676
-41.021892785249825,-2.5343481246930777,33.695544984852
0.6111312374351232,25.337903471241994,124.73468475868242
7.062086702730528,-12.56579484115043,30.666767866374578
-13.387455055040387,-16.203712237897758,54.596695857663576
2.2021339600919103,12.792503812766991,86.91717965697558
16.356963626505202,20.679073038999807,119.71630486916175
-8.796421067792766,5.044705004147091,59.15465195899626
36.70601773979516,-16.508011654932506,29.968141778596298
-2.783016509516331,-15.337305951976063,14.184872032083273
1.1272902143033958,-12.819182034732888,16.303083860766353
-10.68985956744867,4.41795178119503,42.95850799528116
-5.098064531437644,0.3563707285576166,35.800103525812226
26.08292009832986,34.82167072196025,131.61271572796497
-8.989458403941503,18.137615476139857,115.67529403700463
-2.8721367238268254,15.9126292938384,55.22413848332914
1.2058280734818798,1.3783802114751043,42.90065718146968
16.80078050177934,9.628765852273617,105.68042507446498
-1.8348500597275705,25.46147064639986,146.4179430545805
-1.6519270669665818,22.145155242435685,32.05972359336254
8.083042590326649,10.949186266292257,112.32381627934559
-37.06361555417711,-21.34573312125608,99.57271701394097
-16.698321291348616,12.172422684657311,101.96643329399838
-7.739813630156442,2.3452709845073185,109.67150739158325
-9.422142478707395,-17.408440447496762,6.868405145100248
0.5347226982647547,-2.125487668690057,51.606023491329836
0.2606013371224689,-0.514289895294513,142.87715622985877
-10.517002547221713,20.7679303245025,26.5132157818545
40.30530863090279,-11.171904812104993,65.1256479269827
-0.6091199369523934,2.5326316366226065,59.349639843543635
-22.41581012953177,13.419381969298879,122.87488131377884
14.055251541269568,27.70773768722008,13.177655226243623
15.758655465406054,25.44689162567711,21.490410336028038
-41.39433888853229,-15.77845003825567,30.6171531805098
28.65656080742536,-31.12338027018785,99.46704125402536
32.69834972434569,26.132624413269724,124.09279245662657
20.244685633260616,-21.995703142932456,123.65590261705151
-22.09122973023226,24.05915597233315,116.66429091521086
29.1327413930637,-39.24691228145261,50.89614502276649
-13.00867064421271,34.14327328793885,106.49016668909307
-25.317887782958255,11.87273782440016,41.463251523941395
-7.777789119640684,2.4367221952273788,81.3269586095547
-7.704592188563101,8.65491454778428,38.54025736340917
13.037117873577504,4.921199332312993,116.48836995553934
44.32178861402734,19.886867732272425,120.59491471092846
-31.154301874515518,-20.01238178734575,117.75344386071426
9.82265775836665,-10.863236285550768,115.94962853043873
-6.871418346082444,38.67428118804414,142.9894949306971
8.58471273610581,4.26410715962856,101.82319861752592
-12.659050162047436,-40.750978320142586,110.63032238716778
-0.6483182103605195,-0.054614408271158814,135.46328586498322
-10.484357774834905,25.186707253161703,97.80389858737001
5.935422183657,-5.313231862859065,71.27604392841533
39.56777283727523,30.31231010003096,105.93564880554146
26.320579641811094,-18.54759097609322,62.97758251485196
-2.589837267124463,-0.15995972972971298,139.5282582647061
2.985205368538389,5.166050616715484,74.64827078954481
-35.14218106035085,14.25055913863232,50.42675904643349
