-141.22021680225924,-117.85554963554856,0.3392840220898502
-125.06471137186776,-10.666468526697829,0.9570519086723211
-40.652363298501434,-29.374176997874397,0.7606554100457008
70.87378710424646,-193.97288044177128,0.48683233031278406
115.67610823861641,-42.40959611479509,0.6229848147391033
-105.8057738699629,79.75897193125664,0.34561276521991013
82.58367208371511,115.2593277687044,0.14236988730171352
-104.89851024353518,254.78967782993615,0.23846599858375372
153.02244640293443,-47.86902191254499,0.47403581125528826
-130.1987965136463,-5.752633295764284,0.7802186697954887
126.28003216770776,35.89831722984705,0.3828679650991532
-9.86615247324725,29.326704327899844,0.32108961567640437
70.8706344105471,67.26116530576671,0.05620955778208048
162.5677343199547,-64.21649773737408,0.6505815368619278
74.25116689457411,109.75795751403538,0.5680851042042189
-51.80307920196855,162.66047212594862,0.7072831700559497
-52.303622139207626,-13.203038951215088,0.7667424086137834
-39.1100954106373,10.61643053556281,0.35926316945064274
156.31218271146275,-26.364329012139294,0.7587977303337706
-112.06306072285126,96.24708915472297,0.0020379978445458358
-109.47692303129308,6.642627592049618,0.1993574305207395
193.72229583591138,283.60929161841386,0.09780449052473583
-33.273229587559925,-27.94223098932917,0.6096094544538292
-75.95180873792272,-44.78055657480724,0.27326251724125594
17.565652548549124,-43.02113909589523,0.49249917164477053
50.55868333563358,18.933013614783306,0.5902206506188269
23.74502123655534,-114.03404440478302,0.13422898682084006
30.066800124355712,-10.330119311957745,0.9485722068703232
-7.111945897262936,-62.78505431445832,0.5478011049200615
-4.855954307140836,60.77382613425114,0.3302426351265104
-71.87154952598875,-157.7394983039169,0.9181607643369196
49.12582330541785,-26.294929114051484,0.8622330846130177
-48.59394495376157,-200.20769184264907,0.8888382211862874
-59.290618518064974,-55.437165192672836,0.7662969164847258
215.35724576732554,-194.5736953004749,0.770493376073222
-48.122652513939926,23.366060130459722,0.07177549813628503
-69.09007416707611,26.84956652251657,0.3956203970001476
-114.01839384530498,-57.29595651630981,0.4904643696331986
21.3321401216223,22.280002339918568,0.3207081838806548
-101.36989739625778,-212.49590274893123,0.9402208586559962
191.04717584924046,128.27019750947687,0.17116193980295935
-1.4669174125983246,7.127423496169288,0.5784130723254475
-34.30871670201343,77.7376808661707,0.3663811229722028
-18.567566804002062,-94.4793577028266,0.8269278949913034
108.59549164418245,13.300442642147143,0.971871095726567
-37.872463179489344,-74.98390433600102,0.11995012557320683
-110.70547324569324,21.56846122056241,0.10547376030865652
136.4567834361548,14.870522238367952,0.8006947166213527
-84.97475368155094,17.54599222359657,0.7779178839220526
83.17865259497347,106.21154115805057,0.4253276870228698
-53.16489496577822,-217.09361778452987,0.608017977474427
72.59337017408185,-134.72673887959442,0.5716629305280408
196.83484687599076,29.313060726042632,0.8323597930811555
60.39488703349464,-179.241689930264,0.35591140983257263
152.34381819507374,-74.78036878689318,0.3979019317965379
104.05833857901823,-61.21198068280002,0.07234845178559335
95.91565509214595,34.44497737263657,0.9100337676428834
-42.41507905931788,-31.45429597531041,0.3816939345937119
-149.05572615493872,-8.820988025640908,0.8341373971059012
-135.16453970153557,157.6620008741648,0.5717782658559588
92.97749389370577,62.54447767213834,0.9775199302928852
-80.35594825855964,9.91234816502742,0.7490955280040392
27.07206870239617,20.295944076328965,0.7166558801277508
-23.049817477986593,-241.0257422686791,0.6459550145878741
-105.58226925423541,-46.210696130507614,0.288759741188398
-14.241683405587121,-108.07177807390158,0.6581694773130362
83.52191936566224,22.69700526234515,0.9543224329415829
-193.2985943097301,-8.725885604642906,0.40144002922687405
-17.37650208604794,-156.49312745492895,0.762404203524627
138.38432275099902,-99.88970773084588,0.9385770112810513
-24.80795225819559,-78.01892651590214,0.4781054384743122
-72.6389657053592,-83.08359886704801,0.41054760942662805
-86.82702599936941,-225.22422513992075,0.5526702918075233
-65.12934895834674,-33.55353590632264,0.12114788578511348
-143.71964463746565,10.067444879519075,0.871939856844254
37.89668531997009,-107.42819956064251,0.04600576420563485
107.4537041777549,-16.870989319382453,0.5100361152338762
88.41290606580355,149.72835326439832,0.9049858840330954
-48.74898267596113,-8.078839194153613,0.9867082973880353
-105.6541595063751,45.715793266509245,0.4377851722400895
-92.89596411163204,-105.1570024750494,0.34005808919454494
72.79161688999483,16.467372171539107,0.0554678532844739
140.0155245429056,-72.98276674799065,0.6421034834727177
77.48785371354569,-145.3089633993742,0.3821173034095565
-51.571863156388446,-73.497594129694,0.10757998575036487
106.87103870549026,31.78017165953504,0.5861551208605609
-69.16463671095062,37.99659099565074,0.2524986072229125
-59.88639741777807,42.091146145341575,0.342948599950882
-15.950508455176395,61.9306841282366,0.30296031288529923
40.381096568498656,66.39134943696143,0.0454146717231646
131.7776206048742,118.42783302879565,0.13755621540467533
105.01618334516014,44.02626841412709,0.9138100243852455
-166.38508704557475,33.074525719592465,0.8443768421258219
-18.457899130837298,-158.3382120995394,0.0668273322009919
103.6173170184212,23.44730102839335,0.4036804708826567
-55.905391410380076,146.25712887831511,0.7072324268568797
12.685219389950847,-113.90588540210831,0.6186547447256574
-129.14693176362718,-5.600155946418578,0.3325053918765657
82.12657569037813,-57.72255923356834,0.2823959265238022
87.7130777380974,-51.769735551061714,0.9731377269178357
124.81510577516013,10.489207411080969,0.5290128461979207
-101.91700726333586,-77.22566703949416,0.4759605575649277
-21.539761953434617,-26.013092629544044,0.14801795755203884
-36.63029554502676,22.045392949957222,0.05888199916941794
28.034142668775395,46.48235176921632,0.5144178019402968
-170.28868633722414,103.18380143692029,0.889115753337858
62.12425341900103,113.02022248036072,0.05238260176845788
3.706869252232661,-12.951390331352396,0.9122075368080202
-11.233900465145533,96.56959175692332,0.45363606239292664
87.65614512895789,-171.56211167120475,0.10832398737914006
4.697635716635975,267.76003290440656,0.5534425854115907
-214.9491556524237,111.20304822013748,0.697179126071542
44.1337899993263,31.807919083239344,0.23907624351278223
-72.6041493656518,-100.90138220634131,0.5412042843335557
15.326595293486852,8.70961384751112,0.7387719715233927
108.45027112512409,-122.15056928549808,0.3742041149901282
-54.98734435400062,46.45195889425789,0.06974993007532171
16.398950086075814,32.81620182960134,0.19324073629717964
-5.313594043274842,5.452336783254159,0.7286987157075873
82.84617196784126,-80.82684745723684,0.2993333782809928
-171.41140021893494,93.7688103899974,0.9139788373806149
116.27325376787665,129.4334200109164,0.6507979297883606
27.28600681012905,-76.74914059319818,0.04366106050660956
220.90263204555578,-10.100132867840477,0.834136401080751
95.01881080013466,-46.96506542274612,0.5975449324502685
-208.20403604284814,-10.213258227143232,0.5081454294759554
168.82211259456164,21.829009862512983,0.19976534638375398
-188.85675731638537,-115.41059602264687,0.770609660583483
-93.32405126573283,139.0051026312741,0.20420421194004734
162.5729912039114,20.5839552008186,0.1732205712670687
66.77175377832498,-15.376665956947623,0.5284870454758345
-63.16683054197162,-47.96319522499072,0.4136698071295969
-42.204893977609665,137.5450506534883,0.8058113790636116
-38.67243026449962,77.45733219351781,0.7674108054809111
-0.9961892495025925,-221.06631918451654,0.39759674545425194
108.11355763571227,10.214620666093802,0.7217013748064163
-87.88040571323278,128.29080791203376,0.9352270262617383
82.76018586369877,-78.47568656323295,0.8437275418185208
-19.87048114720455,-124.58449884298028,0.1894210111895993
1.5860984616460294,-103.12479384212214,0.8552847739239587
-14.154389183433096,-93.44552350857714,0.0641534316077661
-64.14527224513434,96.84391348555619,0.8765798325074597
89.39569161032914,-34.53934260886652,0.1304597230613782
-141.2485063910942,21.68919272664883,0.3899986501123046
-18.719737511393085,-60.508557952452755,0.048719194591813064
-30.835452539114712,-51.60188511539392,0.5133933417574985
140.25352062306757,-4.271776269669127,0.6661577251821189
146.3716832381372,47.993327600869925,0.6074945056205998
4.307413303469042,12.818970917330805,0.10971344350559264
-36.99470942224224,79.15840191786955,0.8645797757430264
-197.00460533237896,68.01554797027812,0.39804556037994887
47.085805493303376,-30.92546511527507,0.8131648465132708
217.97710316297452,-165.86802730678906,0.8063376568936903
155.98073580737613,113.83695528883142,0.3563787940131581
-100.58503502119942,179.94634301296887,0.45946528092648453
-18.309695703987444,110.48052304549554,0.7339613257107275
13.655838158873943,-53.48344154809532,0.5023145122004755
113.119076364863,192.5018917415471,0.4414856509441878
-64.26627251463574,-53.324071647021654,0.7492988260755199
-27.231730828013923,40.50351748600838,0.43909707792492336
-105.2652340495525,10.443174567617078,0.3484038817014834
15.45371194707511,-163.2754921415018,0.06456313704020922
-97.05406477781771,55.23673676815596,0.7159879094032221
-112.61144176036595,154.0025266847481,0.437998068579187
178.0510860624447,10.951053263785573,0.04869840875064435
107.8251701203369,141.50669684983265,0.10676964390264998
-93.56139256522926,45.82121679778752,0.8760435729955023
263.4176974276023,-37.98307899166895,0.22636792493374636
279.6742883387275,34.16444254533854,0.1436417426858274
-10.049959200334662,-2.0578436376833644,0.2729048842839218
-48.179756380793684,56.51472966515608,0.8707361982473069
48.5379458300083,-26.351825081396534,0.9112817950038373
90.38631465845359,12.015729158040388,0.6109485586340121
-35.7887765277781,-80.00688775692734,0.22689891951532226
43.47111868121301,18.475338719094324,0.5099090259245108
-103.4914740728311,87.1532046282562,0.9933380194283331
236.17365585154042,-124.56615389415401,0.2577045573353043
-192.77051019893935,16.49506034473613,0.9142122864762606
-125.53029134050757,-7.235416208642542,0.7674469959533585
-131.35243557792634,134.0183989915745,0.25716097878174526
160.98684515793835,-11.764047998643443,0.9182338503108125
-29.473964105062052,42.564961186338905,0.7759729538766396
148.06651727086654,-127.2718239509898,0.5554581930081038
29.666279928328894,26.401325571011046,0.7208023487642382
46.31087650444192,-73.81066949748487,0.43828483949163155
176.2712636272485,54.43587060791688,0.06309639229588704
119.67357982742865,-50.747013728651105,0.8010859142228219
-41.01152829186975,28.89004979206539,0.33970886431125824
103.52355982152098,85.39628700558876,0.2808868294628386
-88.71217368717977,112.37408225448186,0.40346998387190824
-72.27271054602741,144.5175437345566,0.29953822532772467
82.24460735777762,-23.58946434750295,0.09002847055747498
101.42742874487165,-6.726103757395174,0.17680795518002357
-100.63089996533637,51.00115125841172,0.16149158615132153
52.19516360742127,-24.74554916018061,0.6183500510558188
62.62456510414272,-158.25642098424888,0.8314203001978384
-102.1954892621594,-203.2966141323024,0.36779672679615694
65.97333765082276,33.47663009706405,0.9977353947124079
-23.16429333634736,142.67748353141633,0.05287728410592596
73.671454349831,11.492078570920805,0.14680465560278144
119.74968665865589,214.74531799277221,0.8566367248708088
-23.241098866699158,-110.26720006715276,0.7276035632303298
-143.46889164271602,3.4639785789313664,0.37137305258787556
104.06534682474249,141.3512518933071,0.04583168685607597
42.68863530460688,47.74292795938421,0.9128682096752303
-109.39253652736993,110.72979589082634,0.6037726632296544
-75.61197174773157,169.36169655306614,0.17911180076176414
-165.68037559784528,-107.46952860882872,0.03753084706442189
41.24094960518225,-82.34176293499137,0.5000388294507753
-82.00194710393431,289.77180496492383,0.7181949210727393
14.946755696832401,16.55991123759702,0.47340505462450955
-45.678058266583285,108.01793438081364,0.6840457543158809
-9.195361883809108,-11.065991638423721,0.024382102938834693
82.23218102465498,-45.0016739981125,0.8515873982732475
-132.66869936941902,-54.77582877954794,0.5804066575390378
48.41442068034304,131.07538032196857,0.8919211214012879
-25.49021380636593,42.97214443538358,0.3052435681648302
-128.2887271738507,6.550857287465717,0.9107784851365923
-174.84588473421294,182.0733943016423,0.5381744711232611
-112.45675867823645,65.56154968061045,0.7630961196095609
82.16795129367122,81.34846990972072,0.52259302792909
49.865284804325135,-10.167977639964317,0.36508930387533856
-49.024917546213445,-168.44498375039288,0.055124084859072164
162.68531457101685,-6.727262019108737,0.7416773944282473
14.405316689127659,-191.21240993904593,0.8600259703274151
193.0555513804575,60.961382654575466,0.6997860604300048
64.27122107295979,-102.06000987543753,0.05210224003901387
17.472734370695125,-106.90221824660576,0.5491969751553856
-198.69609903943325,103.91578731270181,0.8168924230621911
-103.15462274885665,-45.015833766112195,0.5155389056762939
32.36568464674077,52.709406718487564,0.9906410469947013
-40.23110300624957,-148.20236348360166,0.8782340321055969
-232.76912338285425,-58.88249411001111,0.9469220962258125
1.581251386579479,44.450268596163205,0.35895752075155063
21.26558300038466,115.47240264857467,0.1918233066395939
-155.8641955491879,-160.89315681864173,0.7025121190636193
358.5380094755847,36.36545915093546,0.8428153686165202
-77.14856071836388,-7.072419100559077,0.5649143673982412
33.737690124704734,-19.97813843437756,0.0866662669370144
180.68252051485675,24.62631964089273,0.5892424617704367
123.56413532095306,-72.20230706431532,0.26668576349372697
-6.981520621181028,-8.29820316537689,0.9542948025266225
22.698891488610464,225.81832957397953,0.8675756891587433
-160.0795900707401,3.917049953013548,0.5713479201662746
95.61840685742133,-85.38541578965896,0.6808400361928987
10.580798352515995,-225.6941552260841,0.6761627139627839
49.43019195918289,16.007225248042584,0.6203853710131181
57.366531187915484,-105.49434441021575,0.0008335970408712701
75.01272697826393,107.0609602321037,0.7831585570159512
-106.53113695461158,-209.5500876558682,0.7935379271763794
118.36712860102313,-16.858714184113875,0.6122398875531536
55.28029074892045,11.522490425713263,0.47699537199720354
32.25971510602332,96.72276806213162,0.8846200062941814
-118.8114765655375,-146.03975376215064,0.48770871951828487
-74.82552775529993,-29.389839433677906,0.8736948411819001
16.29673293333246,-38.941998813112534,0.2682241831315584
14.552045372279354,-28.22443282691643,0.7402647472123478
225.2868408914121,76.65886659322216,0.8803773567707215
97.28667487231455,234.44507384916005,0.9461652440638167
130.55129500844086,-49.92846139225027,0.8227828385194471
114.11573137671512,47.28953483967952,0.13732541692316214
-46.612522441171556,-81.43547787963061,0.4317008581601781
27.896145632608167,16.553367547374375,0.7797048724407639
-10.987208979973193,-10.078668748490466,0.16733520184185602
-92.76497867734572,-105.1185042497853,0.4890000803404313
120.34145103503242,-41.63109960001151,0.867512951250854
56.0585339468935,178.32027670339917,0.7983842631298712
-14.84576835672453,45.69289322157458,0.3750694890192464
104.57139866901856,41.78801856288135,0.47014999534213364
-58.700094571382536,14.649133330122567,0.23637649171083763
-4.090414786686847,61.58187925909995,0.2816370430729146
26.81691701376552,-132.55355273338046,0.9038630787109269
-25.649948968249603,-108.04720696580605,0.5965257746118396
6.373474967067019,81.54402386545783,0.2921198502083596
45.561935953775304,32.674063386327845,0.9244877622768561
-21.045472351483507,61.24448949682733,0.8588705654778991
-90.72495602003659,-102.99195059399675,0.8153557435756317
78.42177258715034,12.329945844557134,0.8792392799635046
-185.02419385012564,-69.25024234422496,0.08140926683790983
3.9838788088577157,8.425463290154116,0.8032344812052519
-153.60549898812727,111.59731585395494,0.8923181668576639
79.86379375309525,-19.57254165544176,0.9589876918448191
-128.266168228283,203.30391305457053,0.8230909847009931
-107.76025916351779,17.569931689532968,0.03649321892503388
189.70594137522835,55.36121962246368,0.6097350584588359
260.8366012943834,-107.90213934318507,0.026775748863636206
-164.26207786187618,82.14405435974311,0.6655463160587821
140.5433444721632,-164.9322813291728,0.9142582793716153
-126.21290451705154,-240.1624948677847,0.016422183684402514
19.083038645378455,-75.29955457919134,0.411057038527741
-47.23538256140632,-42.54603543293472,0.6840567006842244
-71.05463737161163,-97.68042186181319,0.994121148389697
285.9080629489523,212.80429107915398,0.9037920255044348
108.60008507109104,-43.876482920449625,0.9483030912742888
11.894319837230832,124.58852159598399,0.20187527477396838
109.83483301709505,31.528734054355382,0.7763906518637947
165.01916743576032,-45.878027351096456,0.9052292762712498
134.50411969879883,82.79052054194034,0.6695334811125576
-31.08465750760728,-22.11209936686511,0.36541860916302227
213.7000829696114,10.435683945461196,0.06315267073415853
-39.67018608156745,67.23028304854151,0.5523185018808787
-15.740892115891103,61.823336801704464,0.055978635795087106
-78.16522894288653,132.60234775923473,0.8908622611899455
120.5155303664743,-32.74912742836138,0.13750048161745598
117.94770682428248,41.80983655952025,0.6656785586397943
-94.94342588904631,2.6507744056204197,0.1630559427773578
-94.57268990945973,-0.7645133995154761,0.3909223310071197
227.76083412951223,-46.138655359062284,0.05405790312988168
152.36118140029774,91.71548165485194,0.1725572979363289
-210.43551802939865,-40.07596029617145,0.6938806888853177
33.103375933873096,42.640903509663616,0.08170035717966528
142.30463427716165,96.44465646871852,0.03238182894870989
1.168098130750749,104.17995211518152,0.7714477999880016
-93.74978906472666,-94.65013208170735,0.9605924484396517
-102.84957612751853,-31.259525712261677,0.6198695283345902
23.639490713127827,28.341251544102196,0.11908010178249473
-82.65954418364096,-61.67573782552422,0.6032594122542244
-37.98356521015765,32.39752737036964,0.03221623477360325
-110.03839817117473,-16.341571705801076,0.4895308304257725
41.63048076629898,11.056900773499793,0.14379963421231678
1.6236876720014133,-6.380747229690174,0.6425725696577053
-191.57068738159296,-28.390336442938498,0.9531290736476391
261.53973190218835,23.106350454096603,0.09236278827011524
63.67566589707494,-133.93500363918776,0.8279409209841523
-123.40200657422974,-163.99056479649158,0.611774013330613
-179.90768654129025,-46.1497692275033,0.5553777205671981
4.640957375374587,64.60698286138667,0.36839502523404644
64.86195152439038,-106.17852614494996,0.4386258974466555
-70.97046289936428,23.91179245843134,0.20599251089289516
-74.48848663652802,104.01868788947395,0.8479742895388452
-26.11103248764948,-102.84239172258727,0.4476315839195527
-24.17541918782816,-60.678122419812844,0.8858592908690393
56.85629079604648,30.769516596474585,0.5365119153122025
11.322247880407176,-156.65298690407877,0.7295415131893482
238.4399767690479,-37.506055777757,0.7377133197553238
144.44931955602723,79.37445276315496,0.0940663460651121
-24.44655665684902,-98.51450486101587,0.9206609400892906
40.40892340081385,-44.271765856783006,0.9597547709189248
276.12445256373303,150.48231032419278,0.2286704661567257
-27.64732359189927,120.18111299356869,0.8353308196204944
89.33692143804822,-83.70562998466238,0.6331825493463119
-100.7301918685872,100.07435485576312,0.30755746656362226
67.16068906358518,21.671637502606178,0.012884763936025778
-138.75381598602314,-193.07952770871177,0.2429530983191539
70.79224018688252,-87.4495767919529,0.5862806435315602
105.80284312851013,-84.34196515699496,0.9468915049382159
-59.89190764131321,122.58475320201431,0.022333017995958215
43.45059548671287,-129.0385188045088,0.35259991143645153
-49.27542234089772,137.23173240244662,0.24216033736978748
-135.1978450672746,58.17698121330115,0.2313165049646836
101.19782768952933,37.866526595320835,0.6976374571690973
-86.22240907262312,-33.8500188571964,0.22703521721466913
-173.72673781183886,-38.94688759324693,0.8118994791264199
27.081524417129526,-1.729703198101238,0.9419953656905556
-43.73793989849845,60.82819303366301,0.8803258721799471
91.85563325161382,33.009906000103086,0.5353898641917122
-110.92216284306562,-7.560746808718588,0.8633540518984888
-19.43144945654776,110.52186463795837,0.0843439468806817
-160.5197111257467,34.30450470671097,0.19119541612262658
141.60290940317228,87.4233163393044,0.5850978458781934
4.371118946912802,-20.99829978040585,0.5922812380551776
92.32188144114653,4.288386492768681,0.7644913193850521
35.912857693129205,61.96139581979162,0.10854897465073143
90.57774367869126,66.25647697498044,0.10472259350426705
47.7919170015402,-39.117907209673,0.19474215351831592
-54.82061351138684,75.8325901523755,0.4675647310736344
-141.088947432392,20.27349042944312,0.5349977913960773
-109.15402830277327,-90.91630588381243,0.19694743654680769
138.5465756935816,-153.7821471432565,0.7838927656610434
7.7235825581982676,-51.8033049409792,0.4138202416655894
32.766164658128815,86.22663409684172,0.7629458639995548
-5.4735717289286105,-15.302711908178784,0.35139348175040597
-100.22807452188181,-53.952092379950365,0.37821510209521403
-111.32262566059914,76.77740539182906,0.8665703908209202
-37.47154280889621,-37.55268529125344,0.2847903410225976
-102.64647370717923,-15.573620274672939,0.9215167119122702
-63.99771215552133,-107.95956263236006,0.3532112717514415
73.00906185054075,6.985430975149157,0.7697531129060489
-71.7505439257794,26.98862711136657,0.39303272474766393
-22.358402583114444,196.7256379596052,0.4349658105188904
-27.694364667864164,-14.089442400546487,0.9681950913732801
19.93309199519528,-28.446794568806567,0.02805370271727825
32.51432301988142,96.3535913004277,0.8627804179655596
-165.65860604600022,-173.87593892195733,0.1821217707179248
-52.94099416272989,71.0749883367879,0.6696565846638151
-62.41603028742445,100.90563896287196,0.595470202762416
-51.406177370678755,-111.4373319164881,0.2918451824413967
-47.54590513411094,-13.917407632367587,0.8550843688710665
-69.92586958677637,88.21979614096584,0.47033831942424786
6.384312552987614,69.77747225736407,0.9463852355549727
14.89450754825494,-16.953833290814025,0.8452405399994273
-138.72055167121107,-15.530884200632922,0.49764717351053556
-27.055345300964696,-12.869681428103968,0.09178061250211123
27.581468933665505,24.750655697967726,0.9491816520833037
8.827973833294768,-18.329388814956438,0.19240164515451497
70.12092022711465,239.08887263508322,0.7407032920818845
32.38103089587883,120.63424030477267,0.7936043201671753
-129.2916229547758,28.80821393672004,0.7348694855207712
5.188104387990488,20.316646115357372,0.6476658504516223
-112.40542904156501,-91.06506502680418,0.26970852277520874
-6.215306309763502,-128.77430534608087,0.9775098033234634
-3.29915917725302,-43.03383895764871,0.6716766535504946
-21.126191648342623,168.87583255342048,0.21944950955679832
-40.66347123904255,5.153431357764672,0.7069047364311974
8.822358911377398,1.023717097818034,0.7059191701815125
-97.95231386209207,31.141348649796583,0.5890581500325038
245.6653997118853,-54.935430539238304,0.3659643728535069
57.97727296391203,-49.70399759490757,0.8475653834093764
-77.79066073613204,92.8875452708105,0.2745065567409498
-68.680684118474,32.413101035944976,0.8301134296808848
70.04287045058929,-62.46217544467878,0.40538745070568016
-37.42356362519843,2.0282947865758927,0.6076075323135318
-29.561581858693735,-80.7932369845806,0.9617526934080296
28.895920903966953,-86.51842781363618,0.5876909436250568
-132.93639420549076,30.106840119954953,0.20127520200348337
-92.27580176853797,-36.100486848275985,0.9291739223153891
-82.71058183903887,108.53873226755297,0.45292670929621903
72.99913610321373,-18.825617306110644,0.044963108745927016
61.87465368541092,7.426585247972907,0.5662161175428222
-61.40458823564553,-16.758074913295506,0.7262743925344205
-22.089219913198747,84.3049597762387,0.8021020254336655
21.367921337739865,-48.76381952233177,0.08637212647174652
61.17547234506087,300.5482531793934,0.9377209706012907
38.37320738178406,-117.24680411699,0.7111804753754409
-47.52492556957482,-32.010607167838025,0.8676599778449717
-12.034673488688007,27.218109319886164,0.46624987080611013
-89.56935729635681,60.93651660983197,0.23594617880844082
100.2978777612507,-15.373010123437524,0.38494135229827375
-77.5496578136155,69.98645613238884,0.3855020410919209
95.71510404828682,-127.13421057584785,0.6835668405139201
59.57136779457354,-60.44249805433088,0.05299857905964733
114.75261388183715,-103.32513735544708,0.3790427888613296
138.4753772672209,-4.774621456489253,0.9013364116473892
117.00028934172377,163.83045284348134,0.11359582806580826
26.131346914055335,142.22016955668298,0.7240798848319193
-10.580101015493746,-115.8427615545543,0.2631914167848921
-152.42783288932435,110.0537704685574,0.6027076480829
228.63101150983783,-53.185249336042716,0.18473646036012548
9.906993100877589,-61.8721347174835,0.6980057021942113
105.17137237166578,-131.0809206474981,0.9611432870827783
-42.12934751011737,17.030803905684802,0.5767369771078159
-197.65370958838446,-10.50442055333384,0.9629911062374255
-137.89353529217928,262.9760544226913,0.7612555617409187
131.74455332013568,93.75461464659269,0.8629550822822873
-195.88411792796683,133.87340536132476,0.01112717313246725
-9.35678891523291,-48.34442372971477,0.06173642977396576
29.733626501083766,151.8688459367578,0.5686277180212927
-39.93497181601556,-34.19080707193744,0.31334108798882965
90.86232747554982,170.31687171871636,0.4524412133754334
37.81632190272381,83.58797240516628,0.4739595958292192
43.72010557318502,34.0114487934162,0.32213456097257787
3.546192351429035,-62.46501115614531,0.7222095525875498
169.78793595295028,-204.37371117687584,0.5067104464570142
177.34259802287576,-31.326140643545187,0.2987123214238999
-173.33316807397767,201.6554901106711,0.7002560559967725
-70.91028865406247,56.252497234546496,0.24785868757389695
-3.315899760907601,1.4890620468327496,0.5814184980164494
159.12577369119373,170.29935005612714,0.6202427934174375
-25.04256521190763,171.56967150570912,0.9067679600725816
95.75201219242615,-55.64621899532227,0.28014601844564335
-149.4934155709332,82.0798371368282,0.21788429137833576
4.813284047919975,-124.07616845602567,0.796653062609571
51.78107311898882,171.75303856428837,0.1866336024475297
19.08833251710476,48.85824660153523,0.3256166266458437
-72.98936270895256,-98.52714692726398,0.722516907379717
-28.453822604826467,62.57722190542011,0.6977163231684824
-149.2637285253248,-17.486734852153024,0.8030221445340686
-33.0686433614857,67.89663234114899,0.5706206577646519
40.18033234623229,12.7731682291295,0.2782656211528389
34.65252745162539,-88.26728055221277,0.1741956944927574
74.42022575308853,-4.845236491409222,0.7350589308179861
-27.10323370335535,133.31731720842976,0.8741216262279773
-145.4408986377845,-66.66919797705393,0.4441866383243803
113.5655368369758,62.89482121718418,0.8748258447907075
-33.98944907584567,-93.24311422232844,0.050093168831618184
220.06178772436306,51.35145698948524,0.6085806937263013
-113.6698653495222,102.17417970133211,0.4830968743047024
72.14356393452233,36.007486928492405,0.6169070433284595
-133.169006477332,-60.59331491065838,0.08627314829043242
54.51073950540481,-128.21908865118237,0.33873025850562255
81.93096945791241,64.89033853256355,0.6773954345130674
-41.123341161938555,-107.01444145393144,0.08860689847093972
31.744363719814256,73.90152364015191,0.3401705839214143
-119.8676211306198,50.64786141102465,0.2875349841430975
-122.03825023781185,-8.163640067446243,0.9506723178527451
-155.02266008363694,93.54757831977798,0.2644026959393023
106.70398840650412,-121.28441947124584,0.8039300496141716
34.11893144441309,27.20185424644624,0.01586622330544818
-119.43011715224772,127.65356443414153,0.6678738497911385
-198.57204032230186,-22.07425871215156,0.38143856895487216
-2.5567856668117726,-26.179615716132293,0.20254346186246686
-162.3410177179525,53.33301687724856,0.90258357012542
-69.8123680213207,91.3137839731451,0.600508460851053
195.25150787449138,86.47596698192717,0.4945293382490321
-23.13655119054997,-70.5196464415747,0.5731835903271809
158.99193451705986,30.276379985979524,0.9805165616144248
77.03237590505208,94.1111812951483,0.12553641298104967
18.592758616938816,-90.38260561937682,0.15185129535068653
50.09773830044271,-168.5651628400079,0.8757944796672369
-55.3027989461273,-182.59222146828995,0.06963303547588973
117.58486751154523,41.51051592855228,0.11912466373337849
-136.53373913050652,-44.48862231428528,0.9763009415012881
-40.57697309047907,141.3652139812724,0.9727357560611536
62.89979333820893,29.95463794308199,0.2864693622836777
-43.00760868425009,56.66217664167793,0.7943012821164802
-38.875141470779454,186.49296892693565,0.2329818721599709
5.547406198151397,-10.825563495508964,0.2343506979405594
-55.11481277695622,-58.93418039518441,0.6558851257457318
-31.932468282801864,7.572903211364676,0.7688801746667284
82.91258992557947,21.086093888277908,0.4763833750270223
195.1618491519983,-169.23479110228067,0.730033926254123
25.832475782136203,-10.614294316797293,0.11962784540486993
106.39353738373435,167.90047256442327,0.5708920012714009
115.0806347010924,111.91723358340697,0.3644564635386305
99.4892271393899,5.467636418154147,0.9063819570845755
-5.750204171744205,252.8853421246334,0.2571393854768471
-181.76463153607938,109.56279026186367,0.9373048657201944
-33.9582597441036,53.56215263072279,0.62429800906875
79.39792400780816,6.698231114209062,0.38030096494799337
-130.93622043346008,-11.992325685166687,0.8119123524110196
-50.02134060976482,74.98396953506837,0.574089388974713
90.43192046453859,-31.48863932530459,0.756582736492932
127.2159369397385,105.38833733710507,0.6291446211633233
-126.66799792803131,63.96013881967389,0.15883454517896456
-20.332007043866398,-7.614606354617156,0.7235701190196981
-40.17696823369837,104.37516495614032,0.9864728364542957
179.06148181671162,-57.8088531315383,0.11051272903974219
-51.06082747863721,-118.11133372862382,0.37685404393832844
53.65611708551711,-32.30251055094245,0.557467055409193
17.816464707192203,205.11842057411863,0.8333507749750292
65.02413121192892,136.79131679515547,0.4109950553408269
-121.82436038784343,4.482070358066507,0.12434968590086182
-21.616167265571733,-22.465927097311983,0.7941471335008627
85.59054241937008,37.28277909567491,0.20912288935158252
-108.94515110633618,-48.481915961127285,0.16770184981410519
-117.78876781394618,116.17768290092157,0.8378290744987023
69.95553038247769,55.708533852323214,0.6332966056306969
-224.2240792992085,187.6872088687993,0.33484675761190585
-127.26995086354991,57.71215542101725,0.31244819515341815
1.597396297632879,-165.73583817252322,0.4200176591077637
27.022027756274795,-53.650958996354056,0.42663024933083293
-65.96303884550007,139.70077090770877,0.15856646057779256
62.99840022349197,-11.229904572378762,0.6314119801067011
98.7861078680345,-77.11954633470803,0.3200223741193815
3.6674429926793763,-59.63675771197236,0.24833910022483896
-75.55655515290286,-115.39141521644034,0.3722324538244828
67.41099439223467,36.15324023982624,0.3356777698944493
-14.518632143023517,-40.07056467812337,0.07117171074733186
207.5380405062415,149.30993820665677,0.8615765831336026
96.25078527845308,2.4893507937235113,0.9035278416829972
197.0209192788613,29.78974648981967,0.5416638890867318
42.801478083949554,64.38809457264257,0.8670101933031364
12.175212965314646,72.73888903252683,0.20680259935279777
65.50815007961444,288.90927966430735,0.15468985057587237
-165.871091154079,83.01414648179106,0.2547394089550403
70.67798968799187,-130.00235077388888,0.8955294003059363
-115.5523334241086,28.565249295143925,0.526692910367271
-53.86319940517145,129.13139675222033,0.02074749911516205
156.02865561890349,-78.48415261658671,0.6023477309566658
-28.63822247323075,-191.0254409058314,0.04694740762341043
176.17833043880023,-39.92022676496195,2.00817748748916e-05
151.46624958088762,-42.927337816375655,0.9279454602683987
-54.920262604009764,61.07440652396787,0.25971961352122763
2.241516313114658,-4.5356342243212175,0.024471389801151378
-33.62232409810202,119.07785770345384,0.902462644673623
89.11380788063651,-7.150390128037761,0.39648804725116893
44.464953515001824,-67.23327400588049,0.44682071559460657
84.70853920629014,125.36861909231658,0.08678962199554896
-66.64187982794749,-139.37638778228182,0.09422048809940708
-58.4070834385045,97.81331391904537,0.2991409134958688
5.5721282877768115,40.292080090710556,0.7356373918751976
43.76940772280734,-7.323558945982381,0.8379740952583601
-32.91346990298179,15.274674259267801,0.15425122745594144
-114.63284184015694,-122.04132014246518,0.9096506402524709
-16.87538251646724,-60.19973906976901,0.07631080899064757
-221.73460700327067,-43.14266193645772,0.2987512590027881
-18.94386959836937,13.645594461327178,0.707352207440472
-114.7782978128006,-97.25526328152334,0.6534579515410669
52.040412348615675,-116.12250907976507,0.5898704714445133
-38.84829115643692,-23.75192449301819,0.4069721833452322
-67.896218242578,198.28831741145683,0.808708773528727
31.398682029783075,-51.42995793483514,0.5814870409032349
-85.71340333963656,-43.30193925032092,0.8158544787852746
218.57462369247736,-108.38219292026365,0.0050088400588060855
66.17808527194306,-79.62877900537568,0.833712591381765
-177.8766063066274,-71.421189625559,0.39882024201565947
-185.38754010033128,-70.60781825131832,0.6902718491684261
98.75772595254539,56.8038121917162,0.1103047222069069
-104.50552675609161,-111.98738352690802,0.5442738191523703
-89.6778114423099,5.07783781241487,0.4417355363590203
115.04832689524956,-171.02007413774302,0.01657555053797566
-192.58799064860568,208.13677922611103,0.8178805890045426
191.1087707467489,61.732943792443265,0.6460699248215437
-7.589224914746741,56.50090041270024,0.8570582215926749
77.02863413243894,-164.4182115114456,0.22392806140953414
-42.82030511958197,-86.40416288168004,0.6622802776843011
51.276797776780384,268.42341599508103,0.1933312012875099
87.2590040596952,96.84404263014954,0.26814431814532436
-134.12438790756568,-52.533972311788716,0.5174933062817711
-180.08381087492896,71.4211462405268,0.0764865933794937
-88.49396275846311,61.21095248651578,0.9673137937350524
-222.56952285377625,50.828033408118,0.7191657013569267
36.64950969963331,168.81311019410953,0.8040541830937807
105.83471150867743,-199.4101795118193,0.9933838414639222
-47.242742642597776,11.801249007818862,0.21504068229942463
78.87388259863451,135.74975566041968,0.5094095170148477
-81.74846807484609,115.10109705430465,0.679579343416244
101.75438701734821,23.352649135243098,0.5020472254040804
79.98442132846344,46.466997032369704,0.7351307342327009
-36.965943562465554,10.559897801557936,0.9960627162523978
-53.54267249374073,-88.46428082340984,0.36472814715233004
91.40320024121212,92.71218858751139,0.7111088186661794
78.35723280798722,7.3044300932855135,0.8486373277218312
80.29475211419036,86.83564869594693,0.33066131416097444
67.43824877805102,-48.40707233925253,0.33171789671505814
-31.23662325148001,12.952781004035701,0.499990788224979
108.37555194140892,-122.64967653331438,0.9972495489323345
68.37985795529823,-165.23317082509467,0.032153673128990534
-18.472211077431613,135.5424629896464,0.49629524787839785
-30.081525157625315,2.66793683525526,0.8352405047583178
-52.48236951729884,85.84782491743178,0.8400335688914845
-13.647366314611345,-103.245579857835,0.31937307507939316
-251.69048813444272,12.108953472864796,0.6535499690929132
-101.48058097812745,71.53904942984182,0.5480384334653257
100.4422371016232,27.55148739861839,0.25928640489643984
145.69547421178245,99.65490953324422,0.6844782505802777
-36.69080158749626,-10.0996223122926,0.16560895441154022
37.02635583457641,-253.01017448115743,0.5388784348106801
20.12153040407046,-115.18238987479816,0.34249877912072835
-92.04882291180446,71.29544749038564,0.9320825058426517
-85.00066816294873,70.1879377854299,0.21648130333121163
18.118919606048646,80.07472455868016,0.17018425728428777
216.5140527875725,56.59145674720906,0.4055159836454777
108.67699774940309,-123.9703510455078,0.1677538561431734
78.85568334062401,69.9010904062204,0.19203186046501297
78.40675835498722,-44.81189782120677,0.7607964531336695
53.38512734620758,-65.00474315257748,0.1759646430190327
45.74873436145089,-153.87440975350805,0.5850272597167505
143.6131951087707,-93.32076886241272,0.989532607354613
-6.174921744134364,-16.59380934949999,0.5596723845973312
154.33601012555945,-57.675830002518836,0.14681087913533086
101.17625398912979,-167.9954286146413,0.23720129938866352
173.19333081213836,27.807170795105137,0.4601752574679333
263.56976170470284,19.25637649848291,0.0020415794175017155
41.72234805383596,-68.75897017966876,0.08866258106463087
42.778891328044516,68.32557256432099,0.17834033851096265
-237.87749362913328,-15.956391162999124,0.21622475526224116
41.54861037490309,-122.71850115322383,0.35206429307541054
122.28804224823901,-88.34687281087493,0.4268341962797463
24.91761389157415,53.97117992887078,0.3832613090938847
-48.79103060437102,-15.221443868139875,0.8570384211843277
3.81966380574157,65.78995408742855,0.2087386299127001
-38.63255126432218,-32.9678493195464,0.3260652702947284
-7.851253200264434,-88.45666841220537,0.18162630453795425
-64.25822240465494,46.94769015159516,0.1445469342946345
77.37183233666484,5.1817708264541595,0.022563590272227207
-148.8223122493453,26.548326613545154,0.10105582560188175
89.712249613444,29.68801825591601,0.03454324484085414
155.15321103380313,-49.73867602808265,0.860762823106286
74.80140142680489,-39.89426092214537,0.2101037926550693
-116.60296599344689,36.2171467364364,0.9543481502493498
101.96212213449782,207.94063206499663,0.5865132065860474
13.392968744820397,-41.97534004640545,0.5537249291296542
118.87852060371048,28.68357505820776,0.6683817327569093
37.4167441534066,20.12535591883019,0.015428055737114699
325.5471356524807,-161.17267165875165,0.7346051430732902
-4.3486876997488375,175.4175856296494,0.7898145421085012
134.00899912212407,-112.56264102753966,0.9555115536221849
137.10068715255122,-116.72586857422893,0.5783439645542848
-83.89218008887916,163.72182696774144,0.4120040248843293
-8.000726281251785,-17.933740053896503,0.14208810221299462
30.173968785105572,41.144617613803156,0.018848923244021765
-12.033670462847132,31.344297615911692,0.6368349943294612
96.47853973287363,103.98501355692538,0.7241876207440409
8.476777802346565,-16.674260973777127,0.2407834003356455
95.7370777302004,63.3949654363659,0.7729443971092098
-273.30208416142085,101.80784373853409,0.15672881060853616
-53.98441233848619,-58.056286470510635,0.6169874783502406
109.48737005657682,-76.97434970809786,0.9687530919982202
109.63987090339859,-63.458691368907274,0.6440756849824899
-44.35181247773109,110.38730225920345,0.059266185788098946
-76.58107519335377,-35.953189845181406,0.5355447841615518
-9.142873863823793,-72.4727242075357,0.7105455013406599
25.44166134847653,-92.95601985001842,0.51562750990955
-98.58989581463598,32.39985495801957,0.16830432890663993
67.68702445109652,-40.19653115409069,0.3898301605100237
-42.36084728394328,-105.4796496147547,0.6132284086280076
-70.22146353465943,-147.79757983531348,0.44109907915830426
-167.28551212118273,-127.29152191576314,0.4367139465986263
-7.294691302293285,154.1271804745924,0.8434150604387662
-11.762112711194268,75.08298288729978,0.6020217497188125
-30.684758351385284,12.098767799750027,0.4532244132549842
-81.8804703391389,-40.19880944825668,0.010464623255771355
-8.09340501041493,-35.846020199044915,0.15919376143336827
-67.2794325806148,-8.821372756880557,0.6349306555885162
-139.35945671703195,224.02363381008885,0.5958315608206858
41.9484724712352,-151.52066298609947,0.39949635300799713
-47.733213860936516,57.550922231969615,0.22772536620906703
-164.9685098802416,34.703332622832065,0.3526322193632523
-64.61490887897963,105.0287148136598,0.7567887815868108
4.153484899701041,-20.122875591038905,0.8403134603387735
65.64609508246043,190.0928364013344,0.10320052932491264
37.24832409225118,-81.73761204728272,0.41682297778344246
84.77887098767837,-0.050544629270035245,0.03675710327126247
102.89980355705973,92.4267111436038,0.37723451608177594
175.04101065437118,89.02373293728697,0.2690706004927764
131.53715665379977,166.32887698229806,0.6170991495909551
-11.686978555138278,79.1474551252479,0.11876542191808226
102.6598818193045,-103.43895695761876,0.6306124421327602
-105.59920330034691,26.44279723033539,0.9990493267894633
6.617316318663667,-142.28667713773828,0.0626860227675452
-123.19434597570849,-12.373415744937699,0.10945215284552934
34.74352993523536,-69.733001709984,0.3927519542340796
49.93161201275581,-77.00123488867109,0.6053148319618534
73.29135363530924,-51.598838907239816,0.8505933658816773
67.62565479270364,51.47455523248119,0.1659910619570767
25.48132892970112,163.3171923079505,0.002992414777028163
112.56994721252414,147.79595212430758,0.9081142392717324
-154.4067353294916,254.00351027197252,0.08592778077581875
26.979442579640523,12.248892200847203,0.5842053690377936
-115.22499498481515,85.67751128684372,0.05609054408257086
239.6282107675318,-126.53000615721695,0.27390787672110095
201.29374059150948,-73.63156010839407,0.5854774586812257
-149.24744368655726,66.27875552103892,0.7259564915037724
-13.19008366159319,-86.42985190329074,0.1373676493903626
-114.32475574032703,40.636853718515866,0.7662144878537783
183.323235508827,-170.48185242473687,0.7344848516643133
-103.78637859828919,60.33431147495143,0.36509792484030934
-79.5351966835737,-102.80163998888472,0.060523289497782295
126.85422448907096,-35.52581424381256,0.7157263825011331
-15.116250052498243,105.38265872678696,0.7098189129193017
2.6229337244913506,38.54890500186109,0.014631516916438825
154.0207944501579,-86.66989590479743,0.039171381179854525
-92.5487398695658,94.21510402431285,0.7439741536108034
-50.76883308273974,55.941155636321746,0.9819876616195422
-31.754736902292535,127.39192436044937,0.353864704839023
180.4815774461108,-135.81798696977506,0.409012688721926
-64.47822157183205,-200.95547063120938,0.2820229192652226
-23.596663521800938,70.98169627018065,0.4640819638119662
-73.4152570786453,-26.731047748155884,0.8184223716617621
24.27713155303839,91.19515033220749,0.8859670473703579
-173.5934058627019,87.09053753354405,0.0335714893189919
-55.03721417338539,79.31834362767891,0.35320896579154426
-7.043876152146772,43.56764368997929,0.24854209323629384
-132.99786588426528,26.2844394046708,0.22281138963459413
-32.705820712192896,116.58461947763239,0.6237081537701191
-24.488522444955187,-38.57132363515125,0.6378601706339749
-132.54627043085137,-55.41963114036251,0.506830833820883
77.30235715984625,162.02595273977377,0.6352691889691447
-130.37501397170698,-17.776448006715842,0.3158349514280564
-264.13953319475326,-56.03142894494122,0.011558720117633925
28.27550736072457,83.89876030200202,0.6147515179792948
98.84378791079905,-16.6780904366381,0.515658758339641
92.68967238278802,228.9830062051088,0.9501082701921719
-23.70125716619149,-93.87602441665021,0.6465210945977524
46.47495104911391,-43.96142567565767,0.49362792924211907
-17.4272459871286,17.021852085934224,0.1769542685266121
-66.0889501623816,-90.02091689889689,0.9234565711769394
-281.7189394923328,-103.38991022753102,0.458411372226761
-116.32864178153801,110.71955411437597,0.15153525628974207
-171.62604200559278,-90.28942379502787,0.14996693502753233
-64.15202588783507,-50.880191437709534,0.6785905154772446
-102.95220383216149,199.00439112578147,0.5932248096063005
-72.3520807298634,156.32673854421697,0.07415789659522953
-81.82078285710132,6.600026330944007,0.6233381636636607
-128.46531368564632,28.870050629758833,0.29954744474043526
80.39632305643838,18.556019146188653,0.6595964411090399
196.5946053424128,103.81288281451273,0.10583685675917509
41.672681685793016,-87.05765846830498,0.9201749617135928
-210.05502054736218,25.093911116162538,0.5347626527805297
93.78052708283052,179.53071195421776,0.20036493310968528
105.6672191839542,-129.83835084945602,0.4414206742927299
-10.936245356475876,65.2045517235615,0.04110565507904662
-80.48953932392233,-108.75096750777391,0.8692936583615668
-8.755333125912063,-44.73915887670021,0.7863468045480327
36.71716049612157,82.17438806945036,0.041354854507369754
100.17194631842214,-90.18141047367116,0.9557671493185662
52.32209571661694,-91.28363957423272,0.2498623566119167
75.3646046832325,-44.628963134099564,0.5611157145070615
14.917813347284198,-22.412981917551868,0.26558149210220183
19.654106034892543,-114.53612856452857,0.5045275567796071
-146.85530868695554,67.36200107054205,0.7158375922791268
37.57350694383905,17.9910032501635,0.7980203504307857
-23.965387603893227,121.40761813057688,0.5329201334848644
25.171716933958376,173.75737991883594,0.9286080676970907
-63.703315434565965,57.3884544381944,0.6921443793436326
-78.67624603042252,27.61869565796808,0.6054531248338172
1.2003058329141458,63.04969581356453,0.7730827051766515
188.17347356538872,-158.17862382719525,0.5944253331234948
58.659827303217924,-123.17746393826839,0.825417792907671
-156.79162564958162,12.248222951819065,0.18886647509941168
119.0993064310454,-57.56350055576019,0.37076250267965505
-80.56155802937124,155.83451700382193,0.49782529361695205
82.92677143053203,7.954538235876052,0.1421805198195225
12.486315555687403,-68.9875305585687,0.8228989889613098
-33.40821417487988,-168.33483389036323,0.6210514194491675
-36.85561025443991,-2.780393495837861,0.1721100266586839
-109.02680029969214,28.53211752984362,0.38380916291264067
21.071979104346074,102.46126045201662,0.5466188120663851
36.27356829924905,45.00629103119833,0.9467511015096479
77.14465993551354,13.642193997080918,0.35157841818972135
-29.670202005952675,-124.97056504804742,0.5999324455469721
-2.102579679040294,-236.45720117215333,0.15859110972403634
-23.58518926016575,179.3152517728669,0.09749038473485694
-81.02369867176877,18.01807311341764,0.3641421062585404
-27.1164605278886,-46.21143555069825,0.8908419830966291
-1.9404529148612484,-6.458936610223763,0.8103912786524071
38.467728789905536,-56.48785522105556,0.7439502945749261
110.29579002211732,-161.29988678289166,0.8396270807670984
-111.94728074936063,-121.12910724644159,0.9607113955865738
-32.98285777441335,-64.23443641039798,0.016194892966117203
-152.76473823547815,181.5065026388583,0.44003344578822734
27.77858562164772,-35.727180208526114,0.9335785360466117
68.29044891401077,114.59011011069462,0.45604323130623625
-111.01052177288557,114.83007270411404,0.9377293796716891
-152.0215750288081,71.9973994366376,0.7990207048203078
12.03001771469936,28.86457085752245,0.9179400643604335
68.38676910166512,46.764259820465135,0.1755263685045556
90.62415294508003,-136.2263025580383,0.3888259568976006
7.740477998895693,-48.34527725567877,0.16874798238699396
20.728154314029762,58.301644691293795,0.8563971486111793
25.761232451393546,-19.63159782652818,0.9905038295969348
32.144126524052005,-41.22905103651144,0.13532904430851034
-78.30761716671725,55.90576788962591,0.9050658040972817
63.21766717560148,41.44010799230743,0.05732807959006647
-83.20357359043612,123.48280100491087,0.6680432012241695
64.00021112952471,17.12409063147101,0.8968486942458522
7.06249606264201,67.95447168527357,0.9997231958073306
105.89339318597051,-31.779772645940668,0.9340492893865312
-33.310535058802905,-14.924569016319284,0.27584471842249214
30.359646005936774,96.63586686318,0.8328798213700637
-27.932130940967927,90.11983711503977,0.5354222702214599
84.78039370431635,33.71654772807026,0.035335532808799086
-29.41376724401027,42.47658589072144,0.012181561330683488
-134.14192447450327,-105.98038587083525,0.559780706529617
63.61283713472792,-30.709122035332076,0.41784768677017303
-154.9809277338213,-89.62975437534374,0.6993035341999982
-152.49764589114437,-56.004536972188276,0.1987415130722875
-141.6706058682076,4.73346903027876,0.31158658550932694
20.445328180449003,-80.25038001629657,0.39978394539286755
-217.3111459267525,-6.427621276704949,0.5397133986528195
16.199329076811118,79.40331529120928,0.9380936999144681
