18.163642495837742,127.60394136122022,4.153466767260314
1.8771429556820947,164.0788476375648,2.0141575594151235
-18.216328439679515,38.58817726364172,-4.959369308233309
12.956875692037507,51.754009308099526,-7.9096964263626806
-9.908138335197958,175.33964425273751,-1.5182470587093535
-2.3068385642718217,115.30867935021631,-5.206184558409718
-10.73818781039033,18.59669954713752,-2.8946371647450744
0.6724228037806874,156.4412970502314,3.1758785037951696
-3.2502428126362144,140.43337220565653,2.799515370585254
0.09528502918371269,34.228017076409856,9.570852617542727
0.6072172858969748,52.139423725276515,-3.277678032685651
1.0515112816029062,139.15718442263497,-4.197560403431247
-4.405789300653526,176.8370009994459,4.690916971567055
-5.512457526305244,83.62996206671885,-1.6986411698513209
-0.445387022292686,158.08161881149127,-5.8914666915949505
-7.627104240459076,116.01866793091587,16.77427698222968
-13.434490450138307,32.372477665700906,-7.737095885573825
-5.892750888165201,177.49460805934754,12.195867520557526
-2.2384422811473446,192.9861654778513,1.9298227960501848
17.08422612977805,100.07378363429666,5.3763560938516495
-1.7428403624383115,23.602341378489356,-2.7016990640788863
1.7645535087721926,136.52947051581552,1.261000633060856
1.0751109837748904,18.183969941160605,-2.789863418927611
-8.418590574138731,77.59542976432337,-10.699325904935067
-7.494680759814221,146.93896315379973,-8.364443110641513
-2.269883083538055,82.09906335642813,-2.5321428102394226
-3.4689739372274437,3.072525228993195,6.026125916619361
17.966068456652444,197.52704009286268,-7.412184341326199
13.303688115396659,132.17770375282058,-13.598119571717808
8.731925106505097,127.41860778845317,-10.242708520506962
1.5193151264758613,43.01524794809557,-2.3586892324756152
11.274069958113415,77.48885095971994,1.2472132190537222
4.335911716484222,18.825834022557085,-9.59915301455163
-6.234110358490423,93.1132281220609,-2.6502252075089734
-7.9484955816244325,93.57799843477747,6.72470379494048
1.093835487391984,8.816818092159174,2.8523075637890485
-0.4679901080858601,172.85023223328832,-8.396624275820992
-6.82851978516081,96.20686093417457,6.092184707551639
-4.201392355597428,119.62460663946295,-17.457236985484688
-17.24944468664134,49.30641169607395,-4.8250112431708905
9.78723410874132,170.02773205344107,9.165537593653818
9.766653363887007,92.74298685098137,8.20862127880997
-1.7877161700310973,169.1954129914294,-3.7615418487216243
-17.886686076590976,120.84710244079764,-0.8560647179292988
0.021444495989684436,129.03748351802813,2.8020505469255874
6.296144589745422,71.64993723298578,0.06609981037896928
-12.628597364810371,46.80299243270842,-5.21211633379515
3.229803962272926,87.55030415802369,0.9459534510518939
-3.8733560807514285,66.28187188914976,1.0013445315587586
-0.053690064371736866,11.18454081131517,-1.613703271961609
-7.920463805016581,112.52235062725443,1.7823973570688298
3.6256273712913765,181.5450058910131,3.5595261267592218
10.178170014911688,23.97132160533704,12.43911715530942
-1.97490771348116,46.80992999461282,-11.355094363603692
-14.151193711111635,128.00099648251074,-10.436340312596176
1.853610624040236,32.823624978472445,-0.17806366010312358
5.54377364518873,58.867019703059896,-12.05010415334359
8.981265499572523,96.3989737535752,-0.5405547184073581
-12.742942708098363,191.1841478206619,-4.9478341936725885
2.9370566051776077,76.7767224011936,11.933277440771404
-5.242560907871047,176.19120816262122,5.9906649434394765
10.944734843779555,123.03466292787807,-2.084314942791704
-4.918197384325781,26.091685033727163,14.962233134658213
12.314350072156452,133.74561316021575,11.112737415726953
2.13303799039377,167.19043835554103,-13.944789559237982
-4.040482345770189,72.50175380061208,-4.575980552323486
13.559551446104173,143.13923189962344,-2.3419765374282404
-3.9508585428244296,182.16847183596377,-1.0800159286807145
-4.002846593745735,165.91404416598417,4.735961651147843
0.17669122429189646,132.28770809951303,0.7815981897739259
14.63196222936718,199.3666516931603,-1.2103667358683292
17.27077887638483,141.507989686842,-1.4587346096387386
4.874176269396041,75.5082200027166,15.650758862373713
-8.573444885547026,156.52932491194952,-1.8480895896346932
6.943788304634294,78.11072098438412,-7.5588948689832165
-6.7548903144271915,71.7847802833929,3.5646207215907566
-14.183761877825248,146.70158850790975,0.9474647400270452
5.952624208092964,22.747008914715394,3.5690603420930356
-7.06294539226355,9.827874492056354,-12.795376312084798
-2.21703247364423,186.37911839024187,0.7781375606556139
3.4188720126873466,165.29932137495405,6.2932290599592156
-3.300413114523045,141.5938231002475,4.362076445171914
6.232777316732879,89.53520884500563,5.67782086018901
-7.486192522034735,26.502135933670235,-15.949518949426542
-9.610228201030383,62.08198283399127,-7.430685091137376
-7.272322442388457,17.895430098057673,7.652140482951226
-5.316055681837624,64.66313658630747,4.380084435442907
15.92244675997041,36.9030835813134,-6.097483967886776
2.968763746352184,113.947618274437,-13.803906509575528
0.7531323637789155,37.94374798573115,-1.1850133600009793
2.946413479942757,56.5339496417278,-2.0226969021185432
-2.8561131467393843,44.213012812740416,-7.417645621514427
2.522308727539953,47.39295702319157,0.8656152993977911
1.0934608773338563,170.70091418115427,1.9144116470413963
-4.958881922189965,48.545675015845035,0.971541766833494
5.655140001795758,96.85935446012182,-2.0800135498508574
2.9300501920232467,170.47809988243907,0.7895166176278283
17.174669351802706,122.73045071172086,-6.705798926995412
19.194731506488917,57.58354145735789,2.2424144570504874
-13.201416262364905,70.44838465752592,0.23133115378012115
-2.7558181047387613,143.46341644733522,2.9842535287223915
1.587316189312662,161.18265713259274,-0.0700954634927364
8.215024424946934,56.63534699435826,-0.6641415762290841
11.468438600637763,81.55233183133583,12.529246007743332
0.5253965552099061,154.11055923929328,-0.391865692447618
-9.800153056091116,160.61259847321318,-5.120051443455515
-1.4316790176645975,42.51627385818044,-12.269606207863628
-2.3595988927320275,138.64965994216453,7.443512393734704
-4.524057562870741,108.63559627332498,13.655813638973095
0.08642482934578002,146.9640025603546,8.3849515010804
13.639527433268682,4.246795486805954,-11.664937789662513
-0.2588332357463629,159.17306892690362,2.7907395343512102
-6.2706364107371595,77.04497403856145,-8.518746045480622
-1.5562002028872146,73.82709861022019,-5.6701971022907225
0.7591388551091948,96.86931827680225,-2.2484824765690714
-12.823734275681339,62.848570849632736,1.8143220428387403
12.141601101519568,174.25708458393788,-0.27701975620849967
-1.2123370773695052,138.7945222423795,-0.6212821140914871
2.42444199121294,42.436763841692546,-7.779531403097543
-4.168938920905756,75.65156890911257,-2.876094480777309
-7.06350933406603,128.69271878131127,-1.6826161817517427
0.6403915704760498,79.52266131601242,-0.40544439952832834
-1.7318910818222573,111.23311959015673,0.9647092177932965
0.6882701120254974,162.88449832489374,2.216559342047365
9.416206414324256,71.94836113469071,-4.591660521221946
5.579417184189821,148.54232874244843,0.5367852642401995
17.6523351118941,111.74951593752593,-7.969132329683231
-3.3557140000081005,44.508883574784555,-10.707657095017439
0.7078108128693619,60.222200181031795,-0.08323471519204112
-17.435479743678908,96.52610481653872,-0.8281075009551118
-7.621031460404137,56.77002389378247,12.505970817359783
-15.983454949770545,169.14915619387483,9.71032984622191
-12.018663733986225,189.92128236163043,7.424277188664812
-18.46186808329249,187.33056614876037,-4.86533534648774
-6.010931972644448,160.05605320173345,7.753832106473044
0.03767743789767973,24.89579350217368,-0.07210966141267645
-13.039353689076401,38.71735831874263,-5.683384777478099
-1.4581399849530494,56.964600725687475,3.7703341703563815
5.8168167404853,31.664365968429497,-4.539622970715303
0.47159485861800104,172.62467883978886,-0.5867284068941971
18.119552772368458,58.35688161657866,2.1827003925831887
-0.5698268076024375,15.206901830928544,0.033576093487534694
3.6195567875697714,28.73367613640316,-4.279125095294014
-4.865762818292676,39.214010703573706,-4.326203033814099
-4.248131195777831,175.0716566091205,-2.629455336356071
-5.77295566754497,104.41387420629451,18.391284023674324
10.78482745827478,165.78557019072295,-2.0948693882434894
-1.072451731865105,13.103944757796548,-0.2520743372369745
17.815274781083783,131.93740294585623,-2.0364392397734843
-1.2699681504161522,144.35429556950942,-4.345063282369158
-6.069216197367783,4.068313788948474,12.9516407407467
4.057048951321582,5.806105588903843,-17.926804002212666
6.976417916667017,194.09337293849143,-9.800966477992507
5.134425780801012,196.66012852485196,-0.009229238763305584
-4.583793184755529,34.038775176678485,-5.314939917676242
-9.381048455734181,158.6037499982694,-3.997857192177935
-18.708165079569632,80.91320871635581,-1.4388081206026075
-12.756839261812093,138.53706385952745,-8.620254188539466
7.845244981290938,140.59406410184783,5.642326303263994
-4.5274037925584265,111.52906667524236,7.603450458201225
2.6695563662337403,102.80761863629677,-18.053144676943557
-13.112198221003949,68.05474709376931,-4.843786161973654
-12.071774419404354,99.1874269670029,7.574696084271562
2.6073800454479787,71.16413427975297,-2.0214630030855885
1.4287611430420688,199.93285535491725,0.9882948437812968
-2.842052113000355,56.6200103683826,5.836663860736143
1.216812072565485,160.9581449255658,-18.22558466368412
-7.259474826736153,198.59245984974422,-9.255196265586477
9.747040649011641,184.81215838001742,16.122616242302357
-6.377536068908551,178.7544666567908,14.136830555690553
2.145937704448445,43.16914816749513,-2.3180219839238183
4.199113331387551,168.19335160004582,12.69405742284066
1.8384691384708152,125.4023898167971,-0.8716152171906776
1.871018847037098,88.30262735069003,0.9197163338253758
-1.759573702356358,105.41768336147264,-14.633198104769914
2.3890487779778615,99.17434470528879,-12.388119223055272
2.6270522659033557,21.471572822509998,7.520444134423948
-3.9270514521410913,46.297915841159295,1.2566969635730085
5.345369716524108,102.74262088101283,1.236949074205659
-11.138340790393613,155.24876735780296,3.133314935101729
-1.970732764909229,119.02864705004703,3.0433096297168643
7.78778037276516,62.85247273164127,6.341104094318431
-1.5946391333558128,1.3108667444405198,5.494354233070469
4.821241996496518,70.08145349217259,2.5535205891651764
-0.5148103218956446,173.26330249350565,-3.3459696182682466
-2.0835763281921755,151.42721957613324,-0.3348033236386543
-11.222454186635508,101.08374534005118,14.013130759765307
1.6298951234062835,199.2105762390758,0.17324330352249734
-0.03615080130265072,23.103336421089192,1.674710645912
-0.040830586621419133,199.72187002677154,8.590134395243368
2.922139835749189,103.36026743705024,-1.320039183855533
0.14578904813399554,0.12564961704595312,-0.2744908681415147
14.49696576730203,189.21729632880152,8.682117735369287
3.808836439351026,25.812098732164035,-7.302609576910794
-15.32255703059342,31.644591809084165,-3.934796255972439
-12.017961263179957,172.0377309359867,6.424020380692771
1.2920850184670323,139.3701889005324,-1.1825488161958002
-17.847193488342178,24.419867428232813,4.533091190558516
13.786080411545818,10.832352539760004,13.406337520008533
-8.24002349113979,128.63791333999367,11.90939279527996
10.478357314301267,149.25264648360394,6.127696260337936
15.43099121680608,23.40495909483522,-1.1692075965903836
-4.346808162463588,15.115894453494573,-5.2401024578179705
-18.700854568286385,149.30502271671327,2.9184311943652226
-10.161083381107108,108.50708879983424,1.6575783470552796
-10.092219900788931,43.013995941007835,3.489809916876825
-0.3505164309183684,179.62233295240316,4.7256066031356365
-3.016461185767846,189.0800437951695,13.083802357449896
-0.28046300517013734,82.81805002174866,4.44996932184661
6.313137703456492,159.4099786128236,2.9090536351194953
-16.235696649208293,79.17499985563245,-10.38625215266061
-4.825698917559713,16.554512139482913,6.930646059012549
-9.653362426895702,57.75728516187415,8.931670264848501
1.6132303178856175,61.92774853505576,-13.71365220364995
-0.01422948999762663,81.8772360728833,0.004002727475854017
12.53303652012453,141.81419030679731,2.6197045679839683
-17.628505920567758,119.05349190112116,-3.495879179461963
-12.404513338614327,91.48131349543914,-11.059969315026988
-2.107356261535289,98.17331923889942,-3.904648434613302
-0.027085673286542603,146.04011690529228,7.742201074242004
-4.923644328849937,3.883967728500437,19.02127652225993
3.8262282376091545,66.02895012954191,-1.0213386969890155
1.1472891187172185,128.5805225948735,7.266642909883558
-5.102149968329292,82.26734471271573,13.652474104591013
-6.198308842373292,132.76622278080384,-10.667744238585708
9.90315780039457,57.207100856243876,11.76068352588508
-14.062144237568853,189.24116428092915,4.796481186305268
0.1252614224943744,47.71171809984109,-0.06141263878255054
5.015632813523409,104.35799358795428,4.216219699867406
-9.416259553001662,90.65132440961807,-3.593300045780306
1.5564266995913534,100.94330441075459,-1.423444395818752
-14.443610839775001,91.1057912187365,-2.186936123746758
8.044584668158477,42.184178671067365,4.054526517974935
10.418212187873474,46.46482883336833,9.088725469088976
-6.522908804277675,150.27959620561293,9.55619005325245
12.06686944587804,55.53002823335116,5.215733511184517
-0.004721643744861779,141.03026487042644,-0.17042522763182463
-3.877209643422336,160.8429015455957,-3.5648955004944916
-4.907925746635643,103.61606563208016,-5.054242552893576
10.530679582763833,84.80530238392157,-0.0019098928506191613
1.4179862553521354,74.62877047215564,-0.3005648050915484
-0.020634501931405456,123.2960699119761,15.147220433864831
2.513054046891657,115.5859136695117,-13.367512376030282
-3.4930850863695206,122.87726522024003,10.836632823059148
-17.215951984711555,94.54225106270407,-6.965639803958114
-2.7796734052639547,156.35819369910698,-6.491128536727744
-10.490122866220196,144.88988189474082,3.2057957755265485
3.7877379709183763,191.5139455450461,-14.024631199077394
12.461252649500992,30.80488318492702,7.125499141052557
-7.147165922855661,113.29939740008379,-0.6623441787085942
10.229724691128292,41.69004330253168,5.983954474724615
11.852571488619748,138.84976829403942,12.729862146145742
-7.934038892808387,31.271252705255858,2.697202267876335
-2.3927400167253245,85.97016086479226,0.36631673797086367
-5.492253724099808,179.1062104961164,-10.961778704938228
-1.45186671177584,146.92906094866575,-0.11204277624527148
-6.322043460312228,46.35387431101519,10.09491558952259
-0.7185771623848825,45.10352666601782,4.796819368104112
2.942957971648375,114.24173100091399,-3.1493064825685084
-3.3258226415967456,132.55357530333353,7.167744450235007
12.690068909300209,167.3864669399489,9.150024018248537
-6.171008894038971,62.156932401449815,-17.575208282893392
-4.277207415640599,147.76841172353497,-2.857653219507254
3.978861416564208,99.2624623088504,-0.14791179654068395
-6.989964962745113,131.847339466136,-12.23176047952339
-6.546239211900954,90.98526584750108,-8.8514814531063
17.016002817709754,56.41331009290844,9.319043855400398
-0.6953167106232211,185.23724515009934,17.19152939900022
-0.19856439948169802,32.87292301235596,5.049681839063028
-3.232753924320286,51.17781345944499,10.77311977157664
2.799740020299448,108.28959040784135,5.941446571918738
0.018231217554852377,13.953313347213193,-13.541224102966648
8.900252183446526,168.87578805511936,-10.029482454093193
-11.553424468813494,32.7173972002977,-0.8025389787166363
6.96856683378891,115.98381785399899,-2.6751320403342485
-0.7348918654926874,81.22899308377902,4.122924082986108
-1.6786283598309513,168.60138242723144,5.627147656599046
12.510951770651145,178.01684493501224,12.718733644896888
6.460467500842133,174.2095210063526,-3.3757377902723724
-1.6894633357439892,57.11991060672479,2.24892283551031
-6.3865245571611515,48.742242386726886,-8.24043721935843
1.0679672217880156,139.9018205856211,-12.264408628945159
17.136930923921234,25.115049987575656,4.266678831699305
7.569890410381897,73.44688058482139,-17.912642059910397
-0.833451679463483,80.82919637352089,0.05601777831774797
9.766922765728852,101.6547786257382,-15.556884949484221
-0.3967718979633744,176.75556393495611,13.053913196850266
-0.2706460236705537,74.70021038798522,0.6150009122471983
4.47408275537921,17.248131591468695,-2.6597180968286156
-3.4339776576915817,82.10975326013723,-0.8489300842249968
2.1244373541859507,153.6466087481677,-2.217859442183213
-6.045719818701605,119.52997864064474,9.54391018101553
1.7920603372816273,60.34025589066439,-4.445341627066184
3.0372311267019363,71.9479051062643,-0.00972528419898036
1.3198919515159626,185.0061606082535,-6.2913534686822326
-7.379528621307503,20.474289535058034,-3.694046361869585
4.516783587480403,141.0263004435357,3.9003016551944047
2.1290418117774026,73.59249424777425,0.709106560436859
-5.2190561396520545,112.22462485235694,2.8563232350503633
11.285361463134734,45.466289463414576,0.6848548246526559
-9.164013606112526,15.239820461059118,-15.167455620785757
3.3726257671203332,40.576625835150026,-9.12413304733577
-8.974745591296902,111.96326094419224,-6.298215127818924
5.963959873778025,101.82686462621054,10.127522480079072
-12.603980414868202,127.22809141044573,6.712359857034923
5.120549798146589,130.25447310612904,10.157483881797287
8.053066189745472,69.92357806286881,-16.60027565411765
2.459408766032253,60.51163782101512,-3.267406348560515
-5.423945715941228,13.681140915238199,-4.74043767463329
-12.348522779059511,51.951588584834994,11.718024555738328
-8.61068012414547,119.75303200104366,2.097857269084192
-0.3455858790022201,91.61280135886342,0.015534566235262403
-3.223922370828314,27.281306445689534,-0.39872462856146124
7.4501565487161665,87.1966475181722,-15.095639007220514
3.9350589446259727,111.86487767031315,12.535217383275285
-6.273007398444222,23.410893587702454,-9.307948830709103
-8.748868440509078,114.62000137521761,-14.60988474832475
10.928045548381357,178.5354763301225,-1.8421949841570555
-2.184076689945586,27.366413123098752,-1.8461623340183773
-0.569346841588555,103.54710505715761,4.57508077991685
-12.032373893430476,74.96200536535189,-14.888690660512028
8.083631792718508,197.83187825969927,0.776503074081571
-12.63282594147624,55.30275386454804,7.5305739367900175
-1.2439909420256496,150.43803057805994,-0.4574490426820912
-1.0280201899540262,3.719596355338406,0.052170769287204155
19.070921235749324,144.65021380264494,-3.0379913656110324
-10.867225799923188,90.78037606919314,-0.26820111617101206
1.7208587137961593,25.922911613029022,-1.7624141144370769
-13.60427452878682,0.6693671196440931,-1.7615501290367812
-17.79630847860498,2.345308621084241,0.7108039666981713
-3.3668105355247318,162.86927183848604,1.6500669155293193
0.2776717573588329,163.8305324681685,0.1915840819502327
-12.122157050419029,93.23577487109137,-11.072459042784109
1.3568656287501941,154.45657543707853,-1.182879821943756
3.320995558956316,89.27295803906492,12.789022470937677
4.415612778464749,143.22123336962832,0.0670337969353411
-3.1149846575634204,156.96345748087256,-10.639470433621515
-4.11690694134783,77.12261201291481,-2.3512837893416823
7.649849314763181,146.90429141270226,4.823250161789597
-17.514694016876952,12.877923741052722,4.026482595604465
-6.421359021139972,36.413451363504,0.9060386014510767
-8.783378244946507,78.70250936011489,0.40907416082112663
-12.8250876062885,89.66309823568004,-9.037915343317517
6.550889419355492,139.35376970805308,-2.8371366355191094
4.164324106059715,67.1616063615161,-6.753669836222474
-4.779786965766811,56.5329995346256,-0.13238199811700962
6.903924259166999,173.45323786416452,-13.386516520937938
3.5570580526153455,186.0999085439307,0.28527015965276764
-0.9690394817308506,141.07424664658288,-0.29053245994784394
-9.377400601567496,136.65677620992872,13.1866195839259
-9.912745915575163,39.911963536233294,-2.6317869516537606
-0.19904926363488426,53.65149695674278,-0.022874642042195345
4.327035262929822,191.8977210853854,-2.4271335409333394
1.675069186249406,142.73016244321434,0.598077206130349
-11.226465455916241,30.875810299010386,-0.949874761693219
-16.854963550701374,155.3520799444878,-2.6402145736434766
9.052430527437423,196.22080653897177,8.916317207145887
-7.090303769111634,103.17962059582419,-14.758153952488774
1.8676767922763111,98.22654266501804,16.732224807260852
2.7767519717141607,119.28406228290416,-5.60134929445306
1.9208006889611287,94.1100312035126,0.9302913396461829
-6.022720707779653,44.64156876685246,-8.15664344046366
15.067787843393193,140.169309726678,2.056200422269179
7.0349532914245305,28.403598693308396,7.047554272531231
16.429747257407435,99.02106465741348,-2.5867724036146766
1.625027428118592,75.40510099461146,-10.074109043320023
-4.089131466474329,185.96112911525148,0.6814241881107382
4.721614781450189,147.27838971888934,-16.28901073357726
-0.11382462686372642,126.57690541695028,9.190864779331433
0.33866172984832554,188.77003648176532,-0.41416105754684235
-3.9116079063374745,189.0326694321298,6.770089406677249
5.203530623492037,94.89320099719916,-6.4626195218037275
-9.91208290351692,167.74636025245871,-11.298227287053702
6.387697293424659,82.44938111748365,-0.09126468716502739
19.531959232442574,145.349945477847,-1.8176551159493741
-16.84337542475156,176.51936749448842,1.2414459986153588
3.665312228763418,170.4503980310576,-3.7863980435606392
-16.271028253701413,171.3259398166946,5.8501376943284
-16.99148188841589,187.61905917221847,2.2376528671196967
7.447832374534785,22.510111611367513,0.3556803321535718
5.2265799168337574,124.84382834159203,8.040014906307075
-1.925522906638724,77.62520667630703,10.188795197250153
15.269823863148824,114.32602111449003,-10.701221534079567
-10.458503090175169,20.28107917733337,-4.760338513777454
8.81479314158114,96.43966706375107,-1.230438468531617
-11.768937654628555,114.19722430970414,-4.4081928850398295
7.1872135971165685,63.95114971704396,-9.579468140710853
12.76331308018131,44.78566551637484,10.303698534948248
-15.410847728237233,26.26919019971845,-1.4920846469318298
-9.800192406059187,161.14045218843353,11.72226199452751
0.1004074238395575,101.6074230133144,0.4112119777693896
-0.6532641964006539,2.165631864600992,4.30809554277506
-13.904739348818099,143.45441826694227,1.4930742384734899
2.592097967117242,146.60320320559,-3.3343266169657215
-10.42499975996883,35.282405117845464,13.088863826134022
-12.554911129581651,31.873116401713485,4.328795582914922
-1.1200166635911672,165.865636588774,-0.13768478324831035
-7.629462986058582,103.07622771979561,3.7526156200484215
1.8089276146692286,128.49602801363187,-2.2134696487780428
3.1090901945516443,87.56735146917369,8.85395397098299
-6.530629767525244,186.3221545981199,-0.48724522740021303
-3.1754691433356355,66.96111999755831,-12.811587206759555
-15.074193526864578,159.5127587176769,4.823885564892371
-9.900092010815161,118.44092584549645,10.89170589704783
12.316788496688124,170.60262521281442,-4.3542993749600605
-0.5665691263694831,190.76523440762003,0.03757103524345871
-2.4730939989789604,117.48703389330002,-5.774251635207409
-17.441718586035616,40.5133105350965,0.1807109088889102
-13.401936594578771,116.01166342107732,14.731394184851506
2.870302555610509,39.32766049461682,-9.179517449136501
-2.944477032323492,93.38638969082666,-17.315218622430336
4.893073316354985,50.31967362701495,-0.416339075507217
-6.8113516882387115,40.4221073517514,-5.741276370585443
-4.362551630482774,118.194002788816,6.1741980930106815
-8.54931152282478,184.11209173098064,6.3533965806659145
-3.984915734747798,188.97174832664,-5.895834161350482
-6.125691954711856,179.42336266231493,13.689406306412748
-0.9706291402200665,178.0633827926027,0.01006653152814812
-5.015077627851216,42.063531756853045,0.9654413785219276
0.15306739335651992,18.770265525599903,-0.024027371459540953
0.3547753356473962,14.24572760130587,0.6622747443727087
1.5038119689618423,66.40317747107835,-16.00938671058426
-1.8649802923718393,24.09791126741643,0.9266324157914981
-4.850208497619292,103.56951112790824,1.8612819715223228
0.28816950387901347,188.53946356297314,10.363730800602582
-0.0924589239922929,165.16646375075737,-16.9057141754841
4.93649813271249,155.79715615386368,-4.028585503326897
10.180244269094754,180.76443694634855,9.454803195386264
13.840524437415466,193.4554819276046,-13.33332319017857
-6.619955115336065,156.07442464926206,4.283633212268361
-13.14852913500157,98.1607232717095,7.371962006497169
15.779455255927342,154.1838085854647,12.179070139402699
-4.483447255391157,141.0820060993455,-15.146085502963153
-8.481036628211987,161.749701439788,1.90105768002384
19.078709759500068,70.49362856333259,1.5555418500382927
8.061189269552617,198.49178039002035,-1.4971718685981008
15.958153526108442,130.70445543126965,-10.19027053603314
-12.54763404177143,110.4139597155265,-9.805310941633401
-5.313526088048042,164.139715545936,13.836068575279802
-6.146755102874097,109.46522234333659,1.736327327381157
-0.3965674925582999,47.193460687542355,0.6978483824689017
-2.8299603807841804,135.0364627620928,16.634280401317216
-12.133636690298447,36.52487393138302,0.2765732737388653
5.37977086327014,187.02229539600836,-4.4868927985387
11.069475035006416,99.33917816725375,3.6725021611200037
-17.52500435068003,13.428147882596765,-7.530003501912055
10.847547651812214,173.83622992145163,-10.263393817447518
16.043954528567017,1.054296027837065,3.1593174932264017
0.1478143752722638,167.51841059529252,-8.105452336833714
8.105562589210514,186.1154749779486,10.192173390183562
2.4813983600436913,5.1757406959099805,11.743709283277955
6.374291114215376,167.08038425960507,6.770692379269047
2.644345563700656,42.99528657054439,14.45059062789713
-3.8859606099657085,159.02876929404852,13.915419888259967
12.857881671664636,42.06373630931319,6.842631828503838
-12.816243767443915,63.47990191103319,-8.111046925114014
-0.514833480985883,31.957626438753174,-2.079329882033259
7.228837594445606,113.49969371915591,3.0488239929194876
-0.18024787635641765,18.17081701996677,0.15106061382848524
0.3521192562592119,192.01688144108223,-0.42517077576001083
-0.5407222101974639,55.536516618750454,5.443819803921329
0.5536044751456335,27.543233676624613,2.367600963948639
-10.192135557603958,36.87214838925941,-5.693933888104332
-13.426074432509354,103.18974342829137,3.0662761632320756
-8.71214986338061,48.001245396921476,2.8251483946379006
-4.255278108066895,59.15279204006183,2.2385960104887332
-0.38840065741470087,38.2081643540066,-6.135583492291748
8.587459697773763,4.131463024472692,3.642058651996601
-8.212561639494238,169.74906440183503,13.532865106189115
18.55739852479044,134.5318457737302,-1.1495397354643844
11.289156453842295,191.67277994810016,0.12005482766415568
-10.02813306446897,146.276039355625,3.4838388439406134
-0.0023116873216104737,81.43600556766411,1.5140057405449836
-1.8283791208927858,163.49517722324646,8.654548780283488
-0.8591379648649604,50.52206290866417,-1.0540315465841372
6.996955737241576,108.08980965280948,-0.7089841655648028
4.136407595725159,137.3919952007357,15.183922363180624
-1.838864105916389,11.798423828774984,3.2429558425105234
-6.102279453062582,175.29747399657302,-9.072506774351044
-0.057609099720115985,24.81647027255147,0.6959040824959448
3.346058163796499,107.63440610443995,-16.595848310664724
17.617049446009684,159.33797167587986,5.844172743056003
-14.858991692494659,19.57102402918034,1.5537316981465765
-0.2989408911602736,187.5983478438936,-0.28389329811621306
-6.253382931245388,78.81657310455638,9.551076847136239
2.852514932175266,190.7110558234811,2.497690673065844
0.34937603248845833,67.82562165174927,-0.5599488851790874
-1.3911914115509494,65.1577861436734,-0.6153307984310973
-10.829059941753782,27.203031227225516,-0.5775820390327492
13.374733017971796,69.44775922183652,-0.3133292955775969
10.97782490012674,134.98240456075806,-16.426448170497256
-11.328319823097399,92.9490001726315,4.801749255758214
5.156859627588661,18.98644088868988,5.989082935722382
13.338320669810859,150.15320407652598,2.040271912895809
-5.79502558471342,125.84508486779941,-4.865255213606849
12.896890306291494,34.85682609473135,-13.363376538787216
4.117359930423296,175.39872840614416,-3.776659134809109
4.057797319761742,117.85117135756482,-3.323871881060571
5.425326567295388,189.10186235812526,-1.7706239109533026
2.5151537290985124,32.19852146993738,3.657846943779533
-0.5311993827936162,8.033355307644685,-0.9956645203383114
-9.137910481633819,196.7614510155624,-6.983690695954215
1.6054246656631286,77.9152973948809,-1.8518464900111584
1.0580345737388623,119.65537034308788,-2.814962451406022
3.1701743343438187,151.47178190752848,4.331735166827967
-0.05466121497946903,189.39408559329698,6.757334890233853
-4.925126637807332,58.62252123221901,12.258400457169959
-15.071451158353666,148.20022797896777,11.440959469762433
2.0622142224257463,33.103389723704346,-12.04895215265359
1.1466144785003571,124.10735652045311,-8.799357312372612
0.076383448148026,117.19202965724722,13.026803935913893
6.390570751965763,11.335673345183462,-0.993700242829733
3.060240346211414,95.74926779275808,-4.737961248365764
7.1850968689955295,7.85787659822641,4.993848953198765
-2.5178646505013464,180.40771754090116,-0.7605175091807739
-10.278797255844243,36.26365670106297,13.357314684697371
-8.460296357782603,3.702984859131919,-7.615173988375372
10.881444460151833,11.384189497161712,-5.367237928640615
-0.2750967454444301,122.79705266559444,2.5500213890098635
-9.347896929523452,37.00809861769903,0.6597700700986654
7.579030237275512,0.7739739495839615,1.233809378340826
10.623485219423927,128.61020886964894,-7.836586645434355
-2.737620622384758,83.07095497090589,4.123934394606857
-1.816752505558753,138.42681211699914,19.699456064067004
14.05094146278783,19.400335590615004,10.202855054858237
11.78850869407741,78.30532396727412,4.63060319378475
16.816814992839696,170.78419133784723,-6.3543855031698975
-2.751381766529668,156.6244245390315,-9.993113844917263
-8.056085605333049,198.8368552027015,-1.4755094470148393
4.281647079322136,168.9053644340292,12.381164419662095
3.0503067199718,196.93926379761234,-15.855238270479203
8.15164531720997,107.5433498972792,-3.414837980214556
-8.971329266145894,145.3578386742344,0.95038683754538
0.061085619949268206,106.81132304421277,0.01642337625447346
12.187976357722151,124.66690844942676,7.158033844556905
16.544880698762324,189.38068977414642,3.460191540753989
5.2523724370097025,174.97188187957954,-12.306621601663485
2.1966428448702366,19.29974144162905,-0.910899494525865
0.7852187323577104,66.53954616280491,0.6119071177824891
-2.8273467343384637,134.79050659248622,-3.368129687027898
8.15741800931465,154.41064390952326,9.7434903536644
-10.771079191456543,90.61236127654497,-14.598606436196567
0.03571950623061837,35.091848404028944,0.07708037248361496
4.3910090129715265,129.7705734946058,-6.289940968368998
-1.6439113260401939,174.98523685922098,-18.188871542619964
-1.2735380549067121,118.68672787145482,-6.177011330232886
1.5209337632137019,31.21582139231933,-2.270997302631812
12.760963311113953,54.999155884715314,1.5213404853121342
14.877607338336365,126.67233791183124,-9.856844184932287
-6.170317137060551,193.77430767975872,9.91972920120256
-1.9494636298526442,57.90058794238142,-0.8743117484431618
-4.491343401186875,48.672902279659944,-17.390797752077354
-16.455323128706944,139.48259314282794,-3.3286642749404636
-11.62983614525624,11.82092524212397,5.625038559904809
-6.562084816125632,140.2394634390212,-3.9691656127395243
-15.940932914143678,75.95599810627746,-11.364554502830257
1.6343790119292645,13.459897238015728,-8.442110730048379
7.00062591280457,11.198712944708888,12.347016721298319
-1.2624274644866909,70.712031614658,-0.3394948267138375
9.46220353073135,44.87033306177268,-17.352014358311145
-14.683545539455572,116.56527278902284,-5.677093652227745
5.960069755510854,139.03729373782065,18.940778139678617
0.09213055334042239,84.44330361011372,3.4246031457796016
4.691791854873993,54.03403128774637,9.573968508825732
6.032392975626431,172.87939809136176,-7.463566228823367
11.83146494035046,169.02724533823778,-10.96921780510336
-6.7075436032672835,129.5165118768365,-0.38624923841784303
2.018455806271348,62.08747183359711,-0.283616634262317
11.26531834125795,81.63958936293581,-8.400959822799422
-1.2968879190603637,47.10760353924077,-0.005057055809465436
5.571447773369019,80.37953332624174,5.112887199529786
17.460021593084022,6.153418414400558,2.7279634384669884
0.04918285370503298,0.28821003654713184,-1.0190772193041122
-8.585511806716466,52.80351969275283,-17.571039734201957
10.182800691710604,60.92176187976208,-6.78990842482329
15.903075875381617,98.55920687062442,-7.518844012671407
-1.3189451686677418,55.37837128181133,4.749550196209663
0.35688301102087666,3.227827770757674,-2.965324492937132
-2.546775852186092,47.58285160846461,-5.003718601903817
12.14601157487253,102.34030900535743,14.439894494292801
-1.903006401005376,132.85936421870818,4.492821775908285
2.6366454499156844,27.770832243343136,-4.926827424812406
0.9970807718463809,99.83476909672527,-4.577557917526924
-5.31464444660524,61.3182494279819,14.422149702250035
-1.2572287965073334,134.96665901458903,-2.1315803207475916
3.2219149161787,87.05139326552754,16.610588414876275
-7.675572480255311,33.28147522349234,-6.286494787524903
-3.5958638744895963,95.25018895040778,14.529583614005093
-0.9848624998258915,18.88039495608913,-10.53872043154482
0.545838473011028,116.8892278589285,-2.6338573465508626
-4.66462058626446,83.75671175778736,1.3099214860728716
-0.9757425559200357,108.70720033964407,2.5348782846610662
1.7816948301736477,3.4286126695148855,8.050831452504287
-5.880108817267601,113.38495505703712,-8.017669779468706
-13.139945574060176,4.702557569225396,-6.5548516524196785
-1.6456324301224299,103.15727509154276,-9.436306540900263
3.2774980327357777,177.0779538606176,2.8648943616142293
-1.840896034482895,49.59485353803104,-2.092726142465254
-0.07066840330389157,26.513706812079786,0.16029787920248412
11.560927240740131,60.35044598601533,-1.7957018356575984
-4.769464347171838,20.971712934407606,9.991378287356715
13.909154232399294,3.1757790904455963,-5.5388915330623485
-1.9607710003158765,40.941015438169394,1.0308723598229883
-4.603463868911721,12.543204841180945,6.241962727824786
5.12255149644189,157.46978246990173,8.07891060144208
8.274200134527108,29.354644122601027,9.732027631048663
-4.109688394569171,62.935182246612875,-7.324036466453053
-0.36182092486899,150.73947421561346,-1.7454846097849799
12.24402156238689,119.60569971351211,-10.3116379339445
-6.90833996152192,47.733304317410074,-18.742473160445385
-5.020066650606966,33.20396671921198,-0.8202315555642424
-13.165054193736756,73.20182573126282,-14.58406902773134
-2.452686863947303,57.372124197219335,-10.398204939291693
-4.067927900568455,16.914910759185965,0.9988428043645233
17.00588844720965,199.7678761576581,-2.7228070657477716
-0.1047402464728612,118.20632738401517,1.1027194364620334
4.646566766693716,38.182719381586864,-10.152116221208262
-7.579429223107373,64.07472413532184,-2.263934498256261
-7.728165680208483,199.08640900172878,-10.335147317140555
-5.867117144658324,48.338440593862565,-9.637917612969806
-0.2649124941096968,171.42180000361594,-2.037824510874451
9.935221638577373,104.59163332452962,9.296498700246755
-16.928324257945462,39.120921423754254,2.5852169310101
-2.3032491926074,154.66559793135593,-16.31825388394969
6.0350215068854745,161.55804114026694,-4.356126202310802
15.109336910668185,47.93489026789366,-4.081948801512278
-11.677770779185057,64.63991006534701,-9.146815548469808
4.574440441418116,91.08350154302497,-6.220746337365589
1.1285470073778563,99.1387302365487,0.5818746457736901
-14.183151500619605,77.31609672654383,8.761311337416936
-7.4371386955061505,4.846107054214244,2.755502117437597
-0.09853975447740645,56.47353087089202,-0.024405612106900315
-8.21269306616369,23.953987563606628,4.329118671000469
0.18457863683766526,178.55526113027585,0.541446680961208
0.37249177038154724,23.10408598589109,-16.365309759698178
-2.7042303185730865,168.0124625714993,11.577390764444347
-1.5563160262971927,81.89168180255548,-12.790246530191142
-2.2570525550111897,107.61174726573101,-19.608647115833275
8.895896945125552,54.518781686634554,-12.602579785364004
6.255954503857843,174.075694465549,9.364698983064487
-3.9836620016420694,17.262134317210087,1.781397831671455
-8.463396746969408,142.6214738400974,-16.647468680988116
-3.4734502282576267,79.8248221051236,6.951241829750914
0.8308717395296265,75.11619253030717,4.20452980701898
1.6387311138788363,22.868429447577256,-0.07727204711201498
-0.6278975352677602,165.2235845726245,12.041923869809423
0.16188598892831077,177.18741185618373,0.4133516895559505
4.422728034036309,23.210646858925998,1.4797518564892207
2.6590702770680004,70.37498933995674,-7.176444593467152
-0.5980044133871247,4.339177596992094,1.3141648128864856
0.14291648739574117,11.986473239196794,-19.171961489315628
4.479162151770169,49.679135001761246,-0.2921609159428318
-6.013688020119091,176.85489443367948,-12.242906946051969
4.243135485235564,49.54049573527017,-7.2411444088439545
-10.379188317648183,126.35885650319756,-5.481665067130771
8.597917017034208,32.63688085887209,-17.72522693534014
2.9166729349269853,21.032181857866018,-13.80058049936324
-6.575176987932842,123.6238170517688,13.739200165778225
-3.5573999619333616,180.15640838503154,8.742772458193793
-0.5683595289579034,179.3838253887428,3.3590637769738327
-7.683212650198758,47.165700998883445,-0.22995108849998724
1.2226016703136466,79.33100268778175,4.005071157049048
12.724604382838244,122.29206751402535,-11.42548195209175
10.86027906368233,34.74391830915098,7.343446219104631
-3.2414352702379197,198.28080937283542,-2.4735784632369957
-0.6689707229999164,199.36281840670216,-0.5137414243271213
-18.266749459610914,36.213335703579055,2.6683321435063876
10.486717622792169,182.2936599900112,11.283045542431617
3.0976297318338504,196.8525947343171,-1.6432010799407362
6.055161069725504,93.1804904726017,-9.937239338823625
-0.2798043272495572,65.34515956041211,0.18249857052043675
-2.7631450062984033,51.06794216972834,5.282500524435894
-1.9979664754692992,120.51220925861621,-5.844994129069747
-6.544372869970764,167.34306033440228,-16.308036867258178
13.237111372664502,11.021770814765762,7.623619759712482
0.02484467465845724,142.22110204149217,0.019499863201308292
10.104058672690313,122.38356886403525,-2.7440529873174664
-11.355221062447502,148.51229542861597,8.968262291524262
-18.809411500607226,110.138193864182,1.3454400421477646
-2.6895029065816027,83.55590004956395,-6.2330058083663085
-2.706710454834572,166.60400897603807,3.942921182360652
-9.123222448734873,23.139061072702226,1.947118063988091
-0.0774867707930552,164.50543412446007,-0.9207690009859565
-0.7301698888044253,70.01949483937551,1.2044757499439327
5.8307823563142405,49.27375827647544,2.0495625834444167
11.794248571764053,182.32775860053596,7.612401389036279
-8.372144914279868,192.08579184128402,2.8242467564321454
0.967296097351691,71.50297873272574,-9.758765973348735
-14.009763172665316,46.53967168964586,0.3792823027318283
2.7244025199552935,80.53124822578532,-7.193480057248638
-0.6970926895551239,153.14133075038052,-12.809573426551303
-15.384549382059152,108.16145714656254,-4.828669935416321
-0.920178345927439,1.1412743530441194,-6.9059857164729825
-5.4693876479142105,102.21601277284735,14.331575426236306
-4.383875724003282,83.69835424383012,-14.51913813498694
13.87597244602763,157.71302444036144,7.695514192693383
10.973412410178332,40.95971994984888,-2.916820999796958
-0.40201110364495635,70.96840470097432,12.692019239556544
-7.4482655314129484,170.7968022377376,-16.147901307659378
6.08122982883559,55.068599049895624,-13.628755450730617
-9.76342832581391,96.26707970013398,-7.42458926161878
-11.433228249539978,69.11569420174597,-8.266338523670223
11.589812671286019,117.33543588153546,-2.443517401795501
1.2839939172477701,28.158237512264318,-0.16606458594399126
3.4710622761903656,55.73359899550787,-2.7565378370952645
14.282074230586481,137.98330016180967,6.511808519840684
9.038648239805228,88.87489181042561,-5.469643657960375
0.5634546653593444,59.88093054809607,1.931039880777324
-7.935057719305795,183.48601188120975,-3.8956315217520205
12.121794585742423,77.04755956932638,-5.470690704041432
1.4253913374439082,138.54801210720078,-0.5769621852334287
4.220288358477616,12.079947623581022,-0.8435149975147821
-3.9313960631963276,158.47059809585386,10.868009366703633
-0.795760333048403,71.61187246401326,-1.1536238805821912
0.9516445115227153,198.4656612048559,-0.0645513053684109
-8.111394487383595,17.21444505080236,15.238797830697383
12.36186189445694,153.19022322574259,1.6072092263160471
2.6678068981151375,21.163872573650732,14.790230527023182
-10.384381370008818,18.115011312414463,-5.56467755845663
-0.9754380307578032,177.52398083768776,1.9509857062854987
10.196691628005478,37.950340790951785,-15.39643256741037
-7.95246746137236,132.05054075088503,-0.1302795560292736
-0.0806224538429858,12.485749456489836,-0.895218659778613
-0.7619105144400112,23.35385319171128,-8.822433423578156
0.740466623619699,72.89972016817943,0.4339120193168603
2.296812140340562,149.39538620253984,-7.378251744953951
-5.616879083926804,33.345205795489164,1.3511087590451467
-0.4157310751954282,125.56023206571001,16.57772530171063
-5.573780518085804,112.37863851555807,-4.176203986971677
-0.011874908332964715,159.6347196510933,-0.007937638947441419
8.78953745884422,83.88342274288176,-0.9642019044124919
-1.7692230273932916,153.81599460371532,-2.2114713523058627
-6.325218739260035,33.123233597608134,-11.394237778089547
5.044306565540773,6.3783254715972015,12.361567469005125
-1.1963722529145047,93.30329136342228,-15.956794631478601
4.183461751463359,179.54246668315358,-7.438717236720408
11.192320469249891,57.28655199796853,12.631714035384164
3.6788615562522478,9.092807918680723,1.2805215425837755
-1.5797139724401936,116.97787298290498,-7.949194373236998
-14.890957987518068,194.76643202381388,9.184170045132085
3.0743578798297437,131.78983610969223,6.377590448944352
12.985430319246424,66.77280895484994,-6.5061890561637155
0.540181086747088,0.5098957857339936,10.690871970519888
9.394077272954886,35.01724091824292,-6.2382760992820225
-7.59327310221079,184.09079595545913,15.201262332309888
-13.146531591525243,46.10050499949805,-9.321673042022686
2.1982129447008214,129.43422072048224,6.336762712206885
-11.227742187606786,48.372903592978325,9.497461318213315
-4.73155326883552,86.29239431136264,-2.394330283760074
-2.42467730828652,197.3350940547941,-2.0551888603459627
-14.511259326610407,60.59260566315603,-6.289848808926377
-14.330735563144774,117.3951745513256,2.6520420387639527
6.2386079464484405,71.63991735511831,12.850770426887381
11.052828128794232,37.47833101709131,-8.669028893309715
-4.925592405957992,147.5414251839013,-16.212370588285314
1.4193976083034536,61.78570428655323,-0.5233184765430164
1.0861419296160433,112.59655992821295,-1.000036093042205
10.20830386472502,110.41733099074862,-2.964097299309804
1.3198404485366202,86.85855128942386,6.1790710264404645
19.03440902411836,98.31856511820101,5.808854833948318
-15.437428319043864,15.436898481373373,12.475886767059384
4.590611938098747,160.06545889672591,-2.558692458630707
-2.578050584447231,147.84889225883995,-2.183815290654321
-5.530862536853194,59.86221824861664,4.260256290633251
-6.202670030605439,70.78186208272155,14.90115752497046
0.17658387437511786,179.17257495006146,-1.960224211925913
-3.057749129744068,46.965756185911275,10.131310679352195
17.8282251373618,159.8106764051532,-5.429306106684026
9.52998623861596,0.5372825870956,-6.472173254836164
-9.94655739031868,104.93697836710243,-7.918639444647154
-13.061160586194328,119.86160654982841,-2.4809751740067827
12.80085404885439,112.2351346091156,-2.525905377094993
-0.8134521700562602,52.24520909536241,12.546155075434504
2.670631866091386,143.94976128122804,-0.9748289067160535
-0.023807775996323857,164.36113211274085,-0.04455772491231507
-3.2558972972848763,23.387669088961548,-3.063803706939673
-1.3138118411573576,172.3329247990498,5.49506397910409
-6.024880120817629,198.9357722278507,-8.480144878685831
-10.65566344981405,64.40488895727059,9.211618610742375
-0.6399433297524537,65.6043715253547,-10.06466926723733
-7.434042216768969,184.83780560228774,3.702531056668111
1.72435240684038,108.02630018012538,2.0271563952671445
14.933410747809168,131.27931652093525,6.520311463956558
-1.4007984758877758,66.95822040111013,-12.245060615654003
7.641035824867933,123.11919882548624,0.1688618955678799
-1.043942644768342,139.78341628224638,2.338989971999621
2.6422256797505677,151.33736323627426,18.845825013406408
17.67526060636528,166.3473113921818,-3.8101083806795404
-1.1735609698488068,101.33785308926011,-10.590187772435282
-0.15823281897514505,162.49290159756373,8.793947661623514
5.259132733498828,22.086979814980513,-7.3245113305479235
-12.693403815057282,45.95078140069371,-9.426494639865973
7.932804547894927,146.90024055289717,2.883220579388145
-19.553700488664283,149.75082332285297,-2.2695765187413515
-7.939761182238135,67.31184325940008,-10.664603817076616
-0.13769172331533913,134.40395924475027,-0.4288921740341612
1.5541941999925277,12.629480481822375,2.816939193760514
-1.611424606016454,97.45047759330252,-5.223782382302283
19.346567732872288,183.40571673947986,-0.8744236710291031
-5.721733959182096,158.99047485147577,-1.3889274564113996
0.1645929638483866,136.97277585332986,0.39417304547636045
4.716397952616315,127.3750916606558,9.450829740650065
13.166794037233242,155.51887053979127,-12.218787807040595
1.3602790724950442,30.58770743641879,-2.6482643914908723
0.22608856024103471,198.39403835535157,0.2087011114846311
3.0913058342553232,110.29861843932522,-12.887632938654873
-1.8325847717521588,194.92188652417775,-0.8265788019634842
12.974144532053351,136.9312351466658,7.471032638483624
-2.832313267508309,78.82241432915633,-1.0998701999156815
-5.35674572703935,102.59221315389912,2.7384496443227104
-4.370442969094683,85.87071502768482,4.038750877107096
-13.933713109441275,54.7548742610535,-2.323098487171864
6.401297289238733,3.4290689054769175,-0.5325739206269616
-5.117955485533089,88.32163417949654,-13.70516074229422
2.8345170069304864,29.87526268109242,-1.3800809018202025
-9.525394635366418,88.67825560749681,-0.5696849824208007
10.256216305290145,149.8558134404689,16.72579412809176
-7.181238404524454,47.29071383965569,3.4914476697575623
1.5967327201244454,55.130362659115484,-11.282938003648466
19.325524718948756,84.31948237826587,0.504262290107708
8.43909359886926,101.51159022540155,-1.1215379715951614
-12.705058637180136,43.81280876030091,-7.278238800325268
-8.035048793046233,39.62553315927788,10.506309515395037
4.03313435358836,148.77456208261918,11.677819260017714
-5.287201146535125,81.62901291357475,-17.456942726450777
-0.6819024668874363,189.70611962020018,-5.732492975907057
1.8805513734444057,115.61614394616149,6.100891881108392
-2.0460016925050155,69.80970111856193,8.013467469042082
7.315894948947769,104.6925050608456,-14.149286253561131
2.7242652873867104,23.85015183128141,-2.878373272152441
12.883500240405018,10.691311214213783,-9.267666837899103
-6.79844517731639,168.1832260805658,16.23848103923358
4.8220907256020595,172.4878951211121,10.587033822582395
-12.410170605995589,60.59514534638375,-8.469579143057969
10.281525222054025,168.16233907744805,10.37302540509827
-1.9103518790978558,51.789654285427304,-14.948883941520355
-6.338944159760417,95.87924387755211,3.359589772446684
7.899284360011963,155.87634127160405,-6.8521439850220265
-18.657578792551476,156.8527595226921,3.032609070738509
-0.2728177263695079,161.62372314694258,-0.2736053978377007
-6.736519073521436,146.8862999587593,1.5582741406906726
-17.850493979741792,142.33687777414286,5.524249604764904
0.7774598644383726,4.099038469738003,-4.969643852764333
0.5032355666596025,78.1054409876134,3.0773744040774615
9.40913819332585,100.78327663123127,-12.59729353075862
1.0524092553562454,11.530429953811815,1.7435385658174314
-15.726443986612841,179.16174880830155,-9.308856335302634
