-18.707322859778113,0.3546320884918494,42.55344516098085
-11.734362058365125,3.3761461685099308,42.82712898009136
5.731869475113284,3.2847390387318574,135.4580480266486
8.252829537193666,4.8752710742438685,100.85056589836508
0.40505874495392946,-0.16962920219529906,198.27660076968263
0.9883483289122317,-0.04307058939030749,88.4442237480356
17.443923811745556,-3.9824493568502026,180.77658657307134
-3.2320819980365374,6.3467237129896406,7.737193180720281
-13.677657089331607,-10.645333612397364,103.19207292204283
0.2162850865957397,2.7640434135645706,21.140961571084425
0.39319673154882445,-1.088260363230433,142.65794327007268
-0.7675259706412099,0.7713226162546114,153.11443844031498
0.1037472551783967,0.32709415959686877,91.4038735197509
17.374979596390293,1.0890291213349708,191.5355085997603
8.785144272235257,-9.674351626746171,149.29775888482175
0.7566324440450339,0.5584406988025978,59.32938034154489
-0.6332423322373919,1.2470928412158995,104.56883876319513
-8.14962283378268,4.264710016092239,117.6742261402053
-2.496879861168382,0.037221717292508526,16.845155426921753
-13.650042169529806,-14.251974719590041,144.3491704547623
10.900486803045766,-2.4791885661011532,33.52830441095123
2.267215029448202,-0.17606503922387823,129.90671706458696
3.1681536650098847,-8.527876032609194,150.7395283557036
-1.2285415932369965,-18.44726806466608,102.97884849742998
4.273414945984461,-5.7703976799572425,24.747150635802505
0.03790534029180834,-0.48094468780994937,156.3007582666266
-13.517978863169722,-12.052387256477399,182.89582129263366
18.282301457585667,-7.337512149840327,114.14680845153909
11.12010114038799,-5.444741471957268,196.70578523244308
17.057174551048224,-7.3146573303037306,90.48460078530687
3.396971524244763,5.600353982997469,171.830705102602
2.8600730164471537,-4.643189743784188,29.66322174663949
4.657829784456636,4.377985137237914,113.34425040809113
-9.665291839867754,-16.434938524780293,26.928383079577323
0.16241305350754517,1.3702469091995,92.99429313340804
3.309848633290371,-1.794620177488544,106.96141544377747
-5.283864946833845,-10.827596385746233,29.46710614503956
5.887271494341586,-1.6294106523237322,107.92640451828903
6.679612473454162,-14.593464004208396,155.75506966829923
6.26042166360234,4.808200804772012,164.7553072090372
-3.2836166220985272,15.330368462506982,63.14017670073966
-0.062327881389088645,-0.5629117345527298,68.0227502169522
5.678935698641739,-11.24749488998124,68.60011710135619
-4.968894061640866,0.6957129598915831,25.95297686168916
-10.516109972746968,3.739199058766049,15.361941434239611
-6.626821018890872,11.07977593803532,88.38575640045488
-10.044210795946519,-2.614171592483895,107.70074340691573
9.024970545485743,5.471226625996262,30.734003753917015
-1.277079727319688,-14.818754454887173,131.08861561215141
1.7348446533172641,-5.077689485893421,111.10485283458466
-13.876402840037246,-12.47540221624526,28.183721977563803
1.4072018514903324,19.87288026390149,162.98211198581754
2.8363757664736045,3.348075490653589,179.8885622529233
7.28123113129043,-6.927254846049689,140.71145375609058
4.140281740900972,-18.285176887452096,28.85515827670744
6.437595506432737,12.296466023037727,83.88352451196732
8.466736839351325,2.175896591453103,82.05602439773301
4.216140021568498,-1.0539301154163678,31.90075214121069
8.563731785938575,-7.508589797676731,31.645206665577106
-5.553904757360969,8.129603256401593,141.48379761664768
6.58386099607159,-12.798592365079783,30.730369534162815
-11.302268453444482,4.962537030988155,111.6486194049247
2.710050158786549,0.5330144574623122,63.90563515513239
-17.301547752090148,-1.3382624168231376,74.09568057561053
5.912520222225017,6.140885989333208,107.26209780314835
-2.853435847939882,-0.41581029620531984,45.984689168048874
-8.452378721491254,17.006189509041683,72.22212652542761
1.2354128169542433,-3.946482013738904,85.58595353550815
10.754567470157474,-6.71248943553609,148.18382343752313
-4.787208056242862,-15.763517621895277,106.65629249341295
-13.67286759073004,-3.216172689160848,111.72062152454801
5.459334453831376,-11.842267592365214,85.90687496236131
12.826138258015682,-10.834727912906397,33.29835791695746
0.3113039008922584,18.02902173554569,13.150075886756207
-0.5106421142643092,0.6172403131136919,50.21215893189479
-2.0558470392065065,2.056353609768529,94.3110821500466
-9.602257124140163,14.347875178617672,38.85818929879144
-0.6685089392742992,1.9255091997311329,26.019616985184957
-3.3770812798011938,10.420581357570729,160.45251845626697
-0.11568622139916905,2.3637592286388824,15.031598715834793
-5.289203313003131,-4.253721307425621,82.03342959173614
-1.6160658611005099,-2.9899472569831316,12.75487279216383
13.952459473975301,6.614745260505591,140.85447339809414
8.812079515279144,-14.039058261659969,52.78293323344714
14.635479992975867,6.004973033288267,109.38382138411396
4.390225652460198,10.689927920579471,167.21886461150737
0.006167568381072603,-0.0638206006996468,108.7565350328067
3.5115891264499304,-2.4685656888904606,108.65591405565304
-3.6299515870952046,12.845910777566445,160.82124294108192
2.680277546776903,-10.395167647705538,67.23606675786576
-1.8722346777036833,0.029060801957523058,131.97502686687994
-6.433733045619694,4.223592934232609,78.67488984471866
16.09939805974262,-5.386212945672754,173.49775639520826
0.05450690733410416,-0.33337941444507735,109.28822341862066
0.18382472667563554,2.675077815186381,173.41268913891042
-15.583380995538937,0.2867902658696529,119.27062646342435
6.61891996975276,11.678602014247227,8.180123627511303
2.1364160373102052,15.040095108557953,97.0064972027898
1.9732102224244783,-4.510464224332972,151.10060151527597
10.48642416687292,-13.140195515793952,139.49690455658694
1.980716797715634,18.85401987308585,194.76042799559303
8.289217656904752,-12.306882599470809,74.89229536349609
-6.172066872436152,10.7394123567022,125.86748600645188
12.978402008103371,-13.034720475670069,44.37667821417139
-7.380641227559494,-1.7444803759978555,153.18829819563774
-0.14155695366413446,1.346588230922188,111.43902533303611
-1.0646957607217513,0.8045873901778443,25.14584067771315
-1.3374376662283725,-4.949822949568548,73.36227125427106
-2.4706335078375266,-5.204304726311824,163.51355533639455
-3.357856410978675,-16.677736398984134,33.185265226853744
-2.720653715406242,-6.274836473299019,191.448572387433
10.77966808738318,4.468452953254466,2.6312289771821984
0.5091204603817864,5.30931179653447,186.9637716706918
1.688700534488203,9.47646634339679,135.64295966324934
0.6323316997697397,0.6965066728326529,153.98381507176967
2.47739384520483,0.3745364764747584,58.698207595248284
-0.7968786306204381,3.98554347629819,10.925820940308384
1.3668635619047733,-4.136422994160415,94.64894461442643
3.66506367260618,16.95804333792196,23.144110497115268
-4.465535204085377,5.340064242554788,9.46761481151739
8.868853441184854,-11.08504855681694,168.05022866808613
3.9330595943739746,7.419621964018175,144.34026505329146
-9.654170473041402,-7.420991396189508,24.295572021754165
-4.783414868323896,-3.4305260473439567,89.8597518187086
2.688726142280482,9.057475635218216,114.65583461815294
2.816048069223922,-3.9866202960935597,69.9012629929997
17.528127684246595,0.6418680269834813,150.78057023544628
-2.8710741523353183,10.445420704757835,81.58189792472984
-7.00108596322047,-6.553049007518556,13.191351880396219
0.24405139516253607,-0.580706654224207,40.33215497455418
1.4764729027660413,3.2982163425767457,93.56863791558902
-7.577606040908537,-8.153048235592316,66.3299431670024
-3.5013724115844367,-0.9170538538082594,106.75422810431033
-11.34701243751417,-8.050351374684837,181.42525081284276
-12.168352993259154,14.444632673841644,68.72455959469485
-5.956634419810901,-9.08746822793776,98.73337958903166
-0.13714983478298326,-1.805429575947556,136.16734334724163
9.509181493192445,5.059034517482959,142.9536516713371
14.324041815365964,6.4057391533783745,54.65616303476224
-13.607735744528062,-12.76435379411045,199.2675313785828
-4.259866224467147,-1.4206644816776695,189.4026726686458
-1.9460727562585691,-10.882667431042593,167.11578641663033
11.332428454230488,0.9335844982028396,63.10574200801569
-1.38742057131718,-7.271691492105312,13.263884933983316
-4.844001260694371,-4.437019458333872,28.34844088018873
15.29854623917153,-5.237638483749317,95.7938561701421
4.349516255448248,9.77105739171875,164.46046960354022
0.24617122767318433,0.5904355200814713,161.11920550542592
16.922396200688762,-10.331753438116284,184.23800876580933
0.18535294924712997,-0.1859220886874461,87.38162459527909
-6.277720130977151,6.799434865212271,77.68602308540575
15.999351713487108,-9.68027087126633,109.44821606256295
10.863302664810533,9.481887568030059,131.0309008004919
2.0997011121251923,-2.943786882725271,43.08525467629498
-16.60289903035076,-3.463031037749413,195.04269623358536
15.182392520799823,-11.44086830182559,171.82709562180244
1.794848710301418,7.294912255439452,63.08916159063078
-6.69494515809708,-4.826142670421653,12.902937025803297
-4.399810956155307,0.07409631325278926,33.47778681966385
13.128207953400148,-3.3958980510802985,77.60896666384296
1.7700203799915173,17.883486422545836,134.66223756039443
-15.644598185713894,6.376582634837267,36.403445735084894
-5.56588904927128,-10.607552258181641,98.818072806744
13.865156396840403,-5.859244903112235,120.56113707664306
6.665336081424291,-10.051378318631356,165.5921458232153
-1.1078857325316804,1.0133592360804011,102.93209653951492
11.596318550056754,-2.019380052954353,188.44362899942513
0.3925720542671641,-16.25418467999278,49.50444600607911
2.657106568680868,4.292183290074447,19.020442463505184
-13.34521999231631,-13.906098538739306,87.79454959439896
-4.956323547347152,-0.5351253079742337,17.207192433909356
-14.436556443242852,-2.1363751034291,168.0617074184161
17.261691468546147,-2.735425338712586,129.60121086759708
-9.234706531227124,-4.249213473371544,93.90430898979265
0.1653357913377242,-0.23550252193362314,123.92613152499914
-2.42568321503189,-0.38082172953982807,25.590977502230693
-1.2924355131168646,0.23798844114448878,61.89116503775527
0.9877505825321873,-2.692262403892885,198.762641555538
-15.052388726459471,1.0409889132189494,156.94289690039426
4.00403921965177,-5.399591887200623,173.09965048163906
-6.290726763291898,0.6658282941989953,35.156713971049136
-2.2265987448652456,2.1914740137515625,106.06246190455539
-0.8356104672795949,-0.27323182623513015,69.85566260939247
17.09420652425485,-3.7326925017135157,21.65828202660025
-0.3925614694052356,-5.519719093809554,159.04112897967568
8.311818871116094,17.917728532263478,168.2637909086192
-16.830735887230375,9.234448582095116,14.41859131065315
16.034728220423613,-8.312303536689438,60.63507759878253
-15.943606689461125,-4.044624861979526,22.958306919376238
-3.4306470413262127,8.61914316826363,29.03313346677765
8.061532859070297,-6.354028222945162,150.32000274881074
-5.75078541924023,11.670205239393253,44.948950833754544
-0.42007947562932707,-0.2531330576246414,168.39860939155446
-16.569971279152906,6.043474214981666,14.387529347388849
10.672288684986231,-11.81395995111669,74.67911299618928
0.6382274715315727,4.990650296615838,153.60619657852433
-1.3400279825392387,-4.822254547386946,34.69212739089605
-3.9872832760447126,-13.553802209369389,192.9230456085266
-6.160962262032454,2.0437725501442805,199.6289340307525
-15.294207789385403,11.870677779083307,185.61140760490233
-0.295204307568339,3.225441500886804,80.73042802687078
9.71386931268895,-1.7766698713715936,32.09068645361326
-4.973085381330279,10.460205544955649,88.60589640775203
0.8049280319467804,-1.8067866199977773,153.90450141684332
-2.973897490184129,-1.7199035280450508,130.4550330239538
-2.9551192244839215,1.3236166460658672,90.61280351688256
-3.2717693120358455,0.7041688788316898,43.5258022251646
-14.590299492665915,11.69809513036666,82.54644045071802
-2.2412595069943784,-3.044345741176076,50.19287819223057
0.29023190375743274,2.081818882831831,176.29890523289126
-5.498667201427924,12.457088192037093,136.08722990700318
0.19378665516326238,1.2786333447055207,197.70738578049517
8.946245624787613,11.302690902391264,166.9155185878839
-12.8718949360222,-1.1999754343815137,18.388101239861697
2.767092247644243,0.643321194195203,56.450501749868984
4.104120408547275,7.755707859986827,38.950890714840455
2.910048506752127,2.497736443580266,82.65141098778787
1.4851438922716507,3.1307590631111957,143.88495630653196
-8.77984814103469,-0.45380203119371454,159.60691220788146
-0.8198198493323587,-0.6205296933538696,156.32875728634764
0.4445302758150042,18.62274853142021,104.54448323536015
6.380453399136213,-10.430486002371175,68.60397363236414
0.7690886676630847,1.334115369761714,4.091665200530126
2.1025509295764953,0.9398793790492981,26.50512211539575
-0.6690645299724337,-1.2552872123954284,24.210191964417206
7.124223077067828,7.487201590767549,42.12165971930919
-3.5328985776260766,0.054146735046547954,5.07308925501635
7.749677833050459,8.242776171070417,103.93945493027582
4.897043854349015,13.765403207836696,101.57465074411036
-13.4732935451418,-11.324887308892174,173.16860103672062
1.541789764542575,4.396677601430594,129.12611880336797
-3.246032461476392,0.4333837506834216,82.97313478058754
-0.2025908007847727,0.2277515274786245,189.82692684357855
1.0462256992963932,15.371173379886146,166.21332285974378
12.63070315423511,-5.5122032088781605,122.53387107826919
-1.2333283317593322,-0.5274934206377553,50.69631213468233
-0.3347530372664468,0.05358228237682159,93.71588105795183
2.9040692267654262,2.9457016471714024,156.5640560521107
6.738783360520546,1.705813884283989,186.9640128856273
11.561694195170698,-2.158008881318538,49.825934887822854
-12.738242579849457,-2.363207929146533,67.87390485199205
0.8327321854969004,0.224748662577554,59.83506128240841
-2.766642492941653,-11.238357537843239,32.621262534863774
13.096558087747473,-3.8418804812403136,24.900860450859664
11.824133531200314,1.038800937803551,97.02395726424263
1.289718987070388,-1.2909393785691063,62.47451145925134
4.824452949477032,5.613302273363864,109.5726852934132
2.3912560898656143,2.5673298429742215,117.34447323402193
1.6062008453190015,-0.8266925999758826,169.7812713540429
13.979526846949552,-5.431816252646429,147.68005879662925
16.557079351159526,8.616992672463997,29.633676323670354
-6.297079799276841,16.655471269910826,89.70123843088493
2.8352765054375664,2.2438458860742707,18.962809924383816
0.2751969886845337,4.358611897919452,77.36651708310333
1.9491995136533204,-6.194736754497073,26.46989227439047
0.9832957799100038,-6.35789458902164,161.66587039005196
5.6498317891956535,-11.666961945384806,158.25686660651698
-13.738619344482984,14.117002735591404,147.8803428984194
5.062086141462232,-18.114291242636614,60.70267523836017
8.512097512336293,-0.989630232055271,190.59757362559924
-6.4949873923886825,-2.1941514247048226,103.71373079207922
0.5488333613415595,3.127187171765268,89.01135363137362
13.440819022009013,-11.98733390673901,118.34230254097335
3.0875397674715495,10.026575962829364,145.01734002813555
17.90184950339372,-2.4376577643595674,177.2499464974983
6.9577966269677525,-16.162064134387492,109.1417475405217
-9.589298820551223,-0.38702895966168893,182.1398285827727
4.470747797940423,16.491396747930732,6.326079935453155
-2.5164160211353157,-6.5456955766967635,120.28710530333402
0.7223383797518658,-1.8788730474538495,138.26696863583922
8.771039742388814,-15.259953420773991,129.3621346809668
0.7328414360431761,-0.8927835788748221,176.57939292670846
-8.604312170287255,-1.750313268584523,147.2814472546084
-12.216057442615043,5.63677876673243,181.94474319531838
-2.9247050342993712,5.289067624958694,109.11270659159061
-18.506311572516516,0.709212056622555,2.470940499996699
1.6335562708771525,-0.38234125998809654,107.33826545297612
-1.282996073466745,1.62349613100581,70.9554886226575
-1.6866849784339375,-2.3016357430789145,175.86926070846908
-3.886661580628524,5.746590545826276,89.32321975905428
-7.722761632567709,-6.7855116530786495,54.24801197585827
-0.15863387314600114,0.12247706391719135,85.37942699834981
-1.8689068096692472,4.380065921266794,141.13754378117594
6.274207455404547,-14.868870979872826,91.8175079226777
-8.417936626289762,-17.727487437957013,129.70906931641267
-8.427054050089657,3.1192625108715926,119.28670394811347
-5.078888159579112,4.724050047520977,140.3864128579532
9.323652983697285,16.812855378199576,151.06308695963077
7.621755928649946,-13.800221644781379,79.70251356067719
-1.4085385768392111,-2.6105919200893983,113.62999589212777
0.24921273057296633,0.5413705410444252,13.83157774815922
10.841830397576011,16.77167422091916,172.84935212586385
-10.02136838214887,-4.475008966411399,133.67798446212623
2.8384773983575173,-2.211541010232326,184.69227877301623
12.285049487939112,11.38906274703643,30.150888214411253
-7.266682245460902,-18.434227657597305,7.382748392691196
0.3754341017515168,0.03699051908380252,167.5603540219098
-2.2592211663204766,8.10658565431728,123.99794628021796
16.667547195463435,-5.378862449794685,49.70589270593846
-5.425314650271323,11.296101182506947,64.4395898356345
9.185325847426338,-5.413474646249525,152.4155144199294
-6.68500143628289,6.271592297791965,157.57087310196914
2.7177126062574297,-2.43657780297742,62.55629057641128
5.216829657625655,18.78802002321039,18.062019763914527
-3.565731923746458,6.63178341814303,85.30304987081543
-0.352246681720198,2.5271570058532538,116.77936689413038
14.764039052078456,0.4945102955452764,35.48720548570128
5.3851937110900385,13.535552017921727,0.3815776184133979
1.0655506904843366,-0.3254919251023353,53.58368863302141
14.50917998268404,-6.822705680138221,145.5058930260773
8.842004934922896,-4.962610626730868,184.7252636129604
1.8683975115953788,-0.0044104476000368315,49.64179371496136
0.564196172187881,8.617700015946694,84.85658256140765
11.256212557060023,-3.8680009221203298,194.53669124758858
-6.214747125262033,7.537843259481144,76.5731259487691
-0.5923027558320879,0.9736360508018769,42.72617781506074
9.863187739087174,0.7249359455684311,198.41233932487125
-8.467893168211297,9.898976799435538,56.47772403319517
-3.992205612565644,5.743980227681163,145.05853632238936
7.911336960632249,10.97626302891943,119.17885199113209
-1.58536256112688,2.7079774900574076,162.07590004211673
-3.3257438802770576,-3.0013691190433702,70.16728990217833
-1.8446570262632478,5.885852952650602,1.6623344248276162
-7.929367761780244,1.9643641953600164,59.44372040102821
-1.18995106362624,1.3594799889054,64.20901244853783
-17.509978760309252,-1.5773872561130549,130.6764503199047
1.2559544638379745,5.643538234174496,6.971245067680387
11.037600978827264,-4.084326692794229,83.85827838951485
4.01372426003587,4.445574539841031,195.28440710898653
-1.0959732201538441,4.277683449816687,7.440046779667608
0.7247766143902936,-5.609240616821166,112.8474754621244
-6.983048196796823,14.200444988487256,42.46069438744329
-0.9259336818201819,13.83411030537333,80.30858866198305
0.23832552053387393,-1.0014394638009922,111.42926240229602
-16.491290347838454,3.641709972785023,41.3476722925993
17.325588516017973,7.950118574035249,55.223274877192786
-1.7856612020814882,6.63620426215426,2.335010844030716
-5.51914117431283,-12.49464764848622,84.05956150556635
-5.044076149664382,-6.903045670523481,41.038130806616294
1.2110968887687157,-18.961767935240566,122.40893415449933
-2.2004509995456285,0.7007218507423238,4.182784814587359
2.3698209144157882,-17.443191761257307,36.95764879838839
16.95897323345402,8.862021958048254,17.65304751764134
4.798129190487867,-2.9972166242235017,59.60928019659726
6.405765291109429,-8.636120753265306,75.2177218765948
-0.2306090123182752,0.022520573343187886,118.92235645314351
-6.140273518118921,12.043164806705317,195.36208589765752
-17.48068152429523,-2.1647130647839803,133.40671727602
0.3476525427873566,-5.000029350179185,144.71212561502597
-15.367565684946896,-11.625195114417094,13.837642390366756
-7.992060928928159,-6.747832087083239,175.62834552385598
-1.123069659594685,-7.7034368540455205,103.85233795081948
-2.7728172577258587,2.931405510910154,116.74823886967513
-4.459035398340031,4.868337544171189,31.066541111154812
-4.902847010016369,9.359077188085871,73.92500180868976
-0.36502169005068824,0.35225969020223447,61.784038757375505
0.649441999202652,17.58653695996248,99.08525837484899
-8.412824494886225,6.461989257779028,59.688733009258414
-1.3945910565448172,13.982783382965167,110.83748532030076
2.13833065430524,0.2859939117832242,181.79740761324746
-12.185795796793787,13.704566813894711,164.07721763434225
0.21832108393441083,0.3375051664490626,123.6994160586296
3.8042270093062065,-8.314148073397664,199.0901152873659
-3.569011481794482,0.8941363036441551,108.69857954423506
-2.2100099328112823,-0.13898609271592247,146.21496293909252
8.689564982447418,-6.007401542914587,145.51223950066816
0.4577780765007428,-7.144228125498357,113.51012028749071
14.874895355430022,-0.47395605570111715,33.891582642552564
-3.0866917228042325,-11.60389668129059,1.009039807022316
-1.5080167556149977,1.2369906255271306,166.00457961256933
-6.718527414435314,-16.762965174587485,105.74532147040259
3.1419646859065717,-9.536477866405855,199.63775387181113
-3.3865367219595215,-11.661391233767546,52.2033124856476
4.090239787514812,0.2754895414596741,61.304520949624305
-9.666764229386683,13.998601271318586,120.28693734334155
-5.2680289580895785,-7.5021921399685,173.6253646320532
-0.1784554750575537,3.484000068835618,26.997215877368717
-15.413565233398726,3.8970015949864623,19.29753039867719
2.6147126260644513,-1.1255180764686734,118.15256475125075
2.611930374405532,4.146955171421634,130.85240242550128
-1.2760488094422082,1.013859963665824,0.8508905351333418
2.837186769073469,13.691902418735431,120.07862372862226
-2.3878487419596595,-11.614275849862267,138.87659576030373
-1.0029779740030917,14.979839781765985,118.52478238729465
-1.5296385051044994,-0.009643223126963165,95.09115025400958
0.8949107274064904,6.613027526775107,152.43799027140204
-6.152586731931715,-0.16395131289592257,85.2313125282372
-15.3643403017673,3.0576661183010803,46.42685618423974
9.874017290637568,3.962922010175257,71.72875035148658
-9.923686444747043,10.730075948645895,38.05236073467984
-3.511975455447122,1.0351260542123786,176.72346613682862
-2.4063205024806753,5.719871136347577,66.59323975939671
7.957629281225139,-9.610614596598765,151.59592197322718
-3.0918672125550466,-4.735974216190789,151.66696884483224
2.975387336254308,-7.651806287159931,190.46721628421074
-11.095243518910165,2.8417409889039567,98.56832885392133
-6.73135216004854,0.17299777392877205,185.3757696734896
2.274341501819755,-1.6662174372768583,66.93169258437426
1.7088301977143623,2.128191227847589,34.99965101291349
-0.08247132450292258,-0.44989007614179594,94.42943176615965
-5.435441976631924,15.147301589006203,30.085054378174505
9.602183596903762,4.946580104246065,5.8273164277431455
3.956884364061573,-1.365070352764399,187.791271970287
-10.165215757413986,-5.971250026084139,86.55942585767392
5.294032848154195,-9.270336733384694,54.99601221071333
3.468338924724211,1.4186944872794964,44.79157136809675
-8.112014256143175,-2.3544114538197,43.7371257461352
-3.5065611322091446,11.435262794814204,178.41587113319156
12.972336392852679,-5.835562192213762,134.90393838494558
0.5425545047136514,0.387038549234751,24.84482237455672
-13.559522062750199,-6.468093393682055,114.42049148637759
-5.588004348080912,-1.3890088058394507,111.16240983849231
-3.872629271016501,-1.466073656894572,143.49108305203023
-11.300575297503022,4.799852374465724,164.9712748917311
-5.888435234533094,-15.106285474072639,34.6331497216114
-2.9367395873766053,4.542430099316492,49.47961095460509
10.675886836359508,7.6879520572699445,78.12370863432281
-6.419841890107293,-15.416027616335825,188.86179188448452
-1.4433059676121656,-17.444988947948133,131.41324590585185
3.081827481289616,-8.188215722881912,134.8057708746673
-2.574444031372299,6.696230632150664,75.67677407531215
-10.219149171347171,10.895015969142422,145.64173784705983
0.048367248145165014,-1.2415205180298587,186.74669252747654
-12.230663906421727,-8.25061145466641,110.60151184829206
13.448953480713781,11.207580854610827,67.70712462211077
0.12387105193767159,-4.617745755779881,160.48410963963363
1.0197379729148854,8.709882073066082,108.0193368619548
19.06931002025323,3.552384981420142,31.428865517934934
-0.41203416715939595,3.1088509852862836,150.43159070011774
-1.3797479171534381,-1.0858945990437072,111.50882408252025
-4.992532992723946,-12.593529542843019,110.84468344205783
-2.9586446779096316,-2.7378648349964854,35.24743137109332
1.8863609349842803,-3.27277756712481,30.993581373662728
4.706826268896464,3.9214116810628976,43.70174299122347
-11.419074313630448,2.830543829364083,44.941671220138076
-17.884993311667394,4.106851337149088,117.08141497580844
-6.284356817178155,-14.057596131523105,2.9526571366915944
-5.244746853215733,2.226752922707414,113.46657255199082
19.727769863506367,-0.013798723384545734,30.858026978510722
6.402713874118612,4.961048572897835,62.63388663269873
-8.50774913576311,12.352540336058045,5.0564473721962155
-10.943575696551138,-9.584568259173388,81.97580527691579
-8.866215118101579,-4.338749538906028,104.02163015918995
0.5545305546235889,-0.01672864940039307,130.29134362349802
5.154927332326196,1.9986171471125573,47.378694694535795
-5.266004946587412,-2.385527390944625,130.67752284039815
9.07961233495777,-17.3232432885426,134.19584774539877
-6.273577211126411,9.819708250180412,126.58009709325128
-11.095174910974185,11.352500188013256,184.07048487675175
-2.1370082930612853,-12.440147906673017,176.55954915755564
1.0403997414209754,5.862145640091233,56.17893073219899
-10.860851423494125,7.493448191743387,98.34726103080267
11.1998163859237,12.558134419538924,155.24995361702221
-8.707913531618528,-16.96500348909112,43.65559711984361
-7.1704957761672485,5.520640805115971,196.7491165613915
4.081683571331343,11.978162946491205,75.41534573870494
-2.4037968900513844,-3.322337232398748,135.11158407638254
3.0785826467048047,0.5712845924391815,95.12820498454356
2.198576194185396,0.6278816734748355,60.19897994473822
-8.81359123553506,-6.163773004067623,193.91117133786034
14.701619154016887,-9.193440558522623,120.63101601024478
-1.8987726350456293,11.072407562270302,186.37897477913302
0.9210338404646845,-0.8518255771161445,6.30567350423743
5.743063534481228,-13.600163470749845,91.24962891389052
-8.722786522381874,8.929322826451347,62.6027681840547
2.6722815899614987,1.7736828823134287,195.70942738126826
6.202855522739865,1.361403120652777,104.62796418725266
-0.7407913297977746,0.8260968475956043,180.83447042288202
6.42190190557153,5.037019869903782,87.45964035125114
2.7023915161229874,1.771553214776071,125.42844659397898
-3.2533168684636453,-4.93990746662781,189.05632818914657
-10.656672397638367,-8.30959434669721,45.127104216382506
-3.172638795418073,3.9480994267612055,44.91433715576309
6.355276585351781,6.770817236272862,87.62825816733655
-13.800138822481552,5.358828771782797,86.3581562722912
-15.08757608034703,-1.6670839107519853,20.814851516666756
-7.6112501167973745,-6.8974314750203165,149.94881914363032
2.5646286195409917,-12.60496563105713,113.77485715580586
1.1416996240268698,-2.1966401023711435,196.07563683283945
3.903788504393201,11.101203667513289,190.03834091883425
-7.00379688728423,-4.523447239964688,84.38818691281524
-8.720144965125753,-11.997215684978395,113.93747165628395
-0.642505082728321,5.244804938983156,96.96142178371181
-0.021941638887602685,17.184767243113342,184.67786776280857
4.477552773526917,-0.253706315373883,118.26553039656498
-14.250845342328477,6.590114716339337,180.13253787503254
11.44706042793879,5.096073898840328,123.11545372261776
3.6399784749925557,18.668198261048975,141.7388774340148
-5.444055226100389,6.497848471331634,8.477470908530304
17.459995668925345,-0.9203086553211857,109.31649455429078
14.745600596776802,-8.906468191591086,114.56022502368772
-9.183916841623857,3.1183114088737494,149.78238305491888
0.7959456941856372,-13.500066262483623,194.30995882209103
14.94437062853431,5.1390802123078005,36.50407035364467
-8.180411735190491,-5.371620591789433,13.788320299525925
-14.497116815243256,-11.978815836348142,192.22849291687757
-1.1762667135808702,-1.114039336425591,100.83084640745119
3.644388351838521,8.233121208013067,182.87883681072586
-8.194211974392317,-13.15831221262738,148.28810016056215
1.9091964919271782,-12.142839459178235,112.61620790679771
13.487493494632641,-8.914024693569006,49.514247102500434
6.994886121720303,-15.101590811939474,158.67387623127502
-10.01069093335475,-2.225362292558739,159.83068813689408
-10.880118300817893,-0.9095639691199309,137.8453121387288
8.955453083736238,15.162494753026678,42.22911441803097
2.3855432175234847,-5.433780206011215,14.562735692134332
-11.352154126829502,14.321397625939348,126.99258669563311
0.6978537317856185,-5.21102286639248,144.0582732087073
10.696781116053112,9.408998608573526,77.21304024155656
-7.864042164532583,2.696201821977232,94.20300187240862
-6.664970316560749,5.9660451949896744,174.5542691656596
-4.318040470273662,0.5363238855612406,79.23655302855448
-0.24020067076973944,-2.094246909535503,183.9650198418329
-11.430722124614647,12.230320685017732,126.71463372928993
-5.036178959497778,18.37405375388087,168.0989918668968
-15.577001222312647,2.392778601377981,182.16125909759003
-8.365320444319293,-7.6120495138212645,57.72356465738493
-3.8210609267503837,-18.099692533983163,199.81826175682764
1.9992592808593341,-2.7266308742451497,180.6513968981941
14.291287554709292,7.664845073392504,33.82521254825903
0.6909944015835795,0.23454524561771906,47.7871286113986
12.37037921189079,-7.4599536128727095,141.7212516640481
-3.029973378974707,0.40361203739802665,185.1307531514189
-3.0027433609435223,17.05690388856554,55.65617037920061
-4.129201293133999,-11.245389372983519,111.80001809130033
3.9798104403456236,10.67230057981725,124.07199796850186
-4.26796463759597,-12.744613880410832,188.14500536327483
-8.795252032270602,7.517241264807104,50.700814767929224
-5.377540297874093,7.8785262706549375,151.21423045576452
2.458479624212557,11.363269120653246,69.65190674342867
0.5173716949224871,1.0722272177929721,98.13756927321981
5.8802210562120045,12.090652618995163,127.41204196016693
11.477097700737117,-3.736129330677407,52.87847678190487
-3.750350203527403,2.4509168631053457,28.46686821331952
0.4499808311279437,0.11344818582219518,108.143491152129
-4.0919559484685655,-3.895209479978696,198.45871845473104
-5.187027205436989,-11.288575692863239,15.800966228054314
3.5978474911706395,-9.388069404838353,74.75013221442958
6.056557413767339,-18.505034398249418,192.01355931474723
-0.7171124575741256,6.679033118709976,113.68048509333344
-5.875669778704894,9.473415504803382,184.17739851762866
9.842642960922598,9.948081576263222,41.74573814279343
-1.186290321761455,0.48303096507926224,164.35988176203944
-10.361448973784395,-16.571876548293016,41.9212147379896
-5.331197243447384,-11.264901468586975,35.01300788350583
4.8883374515150635,-3.5760948433416426,31.216098686389326
11.604935910020034,15.396799512104897,51.49980177611455
-9.121789494652884,-8.853244303728763,166.04244223439778
-7.856450921243803,2.7541934918798994,177.73753268244488
6.572101034391243,-16.12502104672378,122.71884489910217
-1.0355507794962198,-0.001744397313390531,76.15553393856136
1.4388032840242846,-14.37827839707915,116.06665147241861
-7.721246073576604,10.0884297183313,20.04595113071219
2.613607890040345,4.767606603338555,77.92331785701904
5.398262313620274,-9.59207959744433,9.198718916489756
-1.0547925369378957,-1.8097921448797496,108.92628036405057
1.3791165678351014,6.350256787421547,1.5730021218409496
4.816572014195536,0.24180029721973603,82.83268467570153
-3.4044690804818165,-0.7542416163042184,21.098432985763527
-16.932336943692214,-4.096990354300899,80.29721471150668
-2.6130885029159745,-1.7770020856480921,198.97528900175848
-18.194870732340778,1.6378338150163492,17.28505337554356
4.227400602477257,-0.27573196414664497,3.659252659300938
4.688601034914938,-18.81129441895983,100.52446599450266
-13.33499522963322,7.7097942153724235,173.08290070292801
9.027666035732317,-8.518971217236494,104.32078359029222
-16.89084980252531,7.427322256389329,74.17028687232605
-1.3337771801584974,0.639751696672108,42.58421960114567
-13.411997527950724,-8.291831465972669,152.3524915591415
15.811043400407593,8.129360252785427,40.390368466278346
7.010930287522708,-10.580346865079916,35.344748097632305
-17.34356663261581,5.988835586232014,136.20369151228363
-0.3711855943004894,-0.3567077358405602,197.0757992921326
-14.38242917548559,-4.587699106436528,55.645417154765454
1.041138485108271,-1.3712992042655243,132.29221681408404
-4.004378663907704,-3.596794719566382,68.10784604351596
-6.266384611342407,0.04987938437509838,118.52365517170323
-5.2868979295285055,-15.442891704949016,37.17133907653787
5.106797862656626,-8.342742808553732,87.34846879188896
16.99242269309112,6.604486134180943,184.21100616174314
0.6530333251259857,5.086773794263052,187.17955245940792
-5.602048876496839,-1.079242571039828,30.63382029784325
-17.597016821359535,2.8597027674315654,162.08556581868646
2.3861709509389954,-19.543993562169913,152.09759943941944
0.5518475860432124,0.10087549467041707,88.27960237318291
0.21486186378222372,7.690099233556584,56.52053423002626
-11.174146367426497,-7.063023992774016,78.24928341011118
-1.790971987885641,-17.461449553708864,163.71335581987898
12.951792283872152,-1.0173062104062267,32.554853689870725
13.609424536984756,3.339768399347817,80.45659404850409
1.6747472839722417,0.6420883282902013,127.82804617759744
4.374553906364719,-2.761417116445449,77.27420125010973
-7.517682760528139,-9.89772392683087,6.172586432414784
4.8269474644913855,-1.3460602515065927,71.08693372558011
-1.4755081741332017,11.680018245121211,126.29730808032433
-1.1913642687675443,-0.30997430692277905,140.16328828516217
-4.81390108693881,0.897778114037349,71.92742079190022
-3.3200626208483475,5.827612501990099,16.62726334955904
2.4814507461601516,-3.411791647414231,195.5374769874173
-17.127116335532534,6.869066350943937,58.54304941922557
-12.384582400107611,2.0313846922241843,113.5625505584838
-13.15775336254056,2.9150469166838127,23.72465361520204
15.937223329552042,-9.83489913224424,176.97219216948204
2.4891607470888606,-5.1606517740886675,90.16726923664365
2.9644298533783,9.307923439929995,123.42134008205193
8.843076325470033,12.52302929100119,92.37336895669787
12.349579537265509,15.359438694278026,69.5062354492278
-4.987794569247053,4.81725099624347,12.837513089317243
-1.9261812955222763,3.2714439945313343,166.82923101025887
-10.697636226664724,6.61583015802735,145.4521415758093
-4.4638036027957995,17.349701072671273,13.2996709193407
-7.636425908243852,2.1899184470405677,37.49776139191452
-6.634080801684024,-4.039278605266354,193.7717106275283
-11.46330887412577,9.840238970776232,129.06087421630227
2.8236528740516604,2.9169480911847496,198.02783060492231
-2.29791931208491,0.5723255192615159,113.47834192281059
-7.130806556309925,2.4765792828144817,123.08850950942087
4.087938217674169,-7.094099144980034,58.24504320501014
-1.045804685679978,0.6479054933903935,64.98801053423841
0.44345021650146316,-3.5209665403481707,197.2037181004235
2.295012013018643,0.27876960158404157,174.70764323740312
2.544786514027436,16.74383933821677,176.3075456232614
-0.5478352540166725,5.478850553445453,74.16398781242697
-0.6700490223905643,-11.081563453636967,179.1179063081836
1.3202661122608064,8.308795948365647,93.22996920880469
-15.726722657298446,5.505690121382551,48.233942302166376
2.6320345254903796,7.244445837853298,105.10169046804765
-1.9540121116098124,1.8458721915990517,72.27743104557074
12.12192869003199,-0.09828567627767582,35.62071510125229
4.811694080227113,-3.3884613754857944,147.91825230170383
7.472571480988507,-5.083440893828612,106.23372819107068
0.8498641049893244,-6.809571846341873,103.52339131713097
-5.183032111201623,5.956703011515587,60.60030776782084
12.427450188908637,-1.5211429122021023,118.48654941169039
0.497603137154178,-3.647134004908978,31.476605134255497
-15.988682215281745,-0.9965222169290135,142.97900292184823
0.10024251881636365,1.251353794495794,145.98865012041037
11.799182800834584,-9.492058965579194,87.35583869664245
8.899260477599926,1.974385856524385,71.6079996156246
-10.091061882930795,-13.547566540377678,178.3299835546463
-0.6153794847855648,6.360516270509096,196.48059584495644
2.7170262659236015,10.879893148861315,101.70630372891154
-6.745413895791159,-4.730985689293381,157.26624462728654
0.035707064842165785,0.0860974385999748,34.7586959269869
-9.277057883109398,0.9778449200470674,115.27647550495819
-18.88101042915138,4.3642437204528255,104.71549889016418
-1.4041562197362296,0.32668169406970443,105.9131701383513
-2.7977177649413387,18.721823137510334,178.48708384587763
-2.5365018734223015,-17.329457808894517,126.95266491248056
-0.27031021224844387,4.6850314551403525,112.70278322941081
-3.816461245411378,-15.71856883615098,184.91832379901422
-6.945109367874672,-0.6302115812043853,77.42437550356804
-1.4408736472399835,8.586009896501531,167.6179326185926
-2.2457996213073104,1.7039465170709596,58.30304430571525
2.5636647185002603,1.261173233426417,100.77352885428384
-11.871931979980053,8.053108095053984,101.10419518870258
14.313903369222034,-0.4034800845504055,58.42944962038432
-0.4100771252691257,0.6923522408707211,173.88311298053648
9.006272611172061,11.69973734939425,158.06976687444129
2.374135660827584,-1.4625592659256508,127.78621938839542
-11.593118208605018,-7.215192554700873,160.7607602296346
-2.18668468427142,1.5225911243871557,116.39675608368275
15.901416134751987,8.096024484644692,2.49434599860785
16.034803337320827,5.950055775441216,54.0043125005482
-12.116520972651319,-9.194473659984736,17.62753728791788
-9.601115346885198,2.455186983128148,9.291007227875125
6.8048057881549,0.916423985999612,58.028541478556896
-15.44489847347555,4.551613014001191,178.96872129326212
14.726911438486423,4.880560510631377,21.956176245491864
4.38909614929842,3.639587454483487,106.82382096498544
-0.5272027435714443,-0.0858335815197567,70.1205298664167
0.5945024869311756,1.5380594121033004,163.00316852982274
4.0273407884122765,8.405387776041964,126.80146552820575
-6.281678772953564,-5.575316069619642,32.519504566602905
-5.018173431440663,-11.068541277544833,9.334032803796411
-6.400578857166798,-1.59420968035917,157.05527440716037
-0.754307190147711,-2.593388295546677,153.6539411024683
2.0667163008532397,17.953260890634045,5.914957779668417
13.693245161322283,-0.9614040746956275,62.51837106779441
4.685444023372457,-7.419975642654167,152.85749581177555
-7.203050615811071,3.4405832869124424,107.65045706647996
-0.34727057550413487,-5.140412788666834,141.6776673690993
4.912856616281669,1.3279251395410525,163.07510027336477
5.377197964180367,7.828483651091086,19.279617132464246
14.810969006821713,-10.693959177886496,108.7941545697046
-12.23764277793712,-6.707336859013344,179.36334659744784
0.01632512249800884,-0.008358032961321173,2.9680777922040047
12.66489085277311,6.796184804726713,9.966589333373577
-16.093194529516737,-8.548196825202659,148.147970789999
-17.30803833588993,-7.727774212548043,128.33830035283987
0.4166039794200652,-0.2675003321046701,96.78043006062084
-16.568900498524812,-5.115012975797943,40.777020970410845
2.45078200134038,6.13833329345025,15.22260135135487
-7.750378056390418,-0.04408144569434187,122.65120670609022
-0.2913981627796797,-4.3352399174383995,33.57551250826181
-6.274671209267071,12.477731904233277,132.0708027316685
2.6717344029897996,5.11827966130334,75.82630742518599
-6.386504848625933,16.704559369192573,39.50462790656961
-0.535242985217526,-1.3909185249637266,140.25945670976316
0.26419705868496685,-0.7999237124149271,164.62907611901448
4.208006563625719,7.426681751289017,6.376697831241662
-3.611099340513481,8.274048427287031,110.77239634798836
-3.0036052485769047,-3.4815276551386845,94.35346679295913
-2.518249552081703,9.243603206055685,152.93048737179248
0.2668928165254998,-9.347007400366296,41.547338641508524
-13.68745557780128,-8.557196826165635,132.2535292574539
10.536617968523126,-15.116732975004133,170.71291704817068
-1.0237523579430297,-3.882774542718693,160.68581130385738
5.912513786315682,-4.033065056159867,157.52133775198956
19.360905425801125,-3.7679254956065513,71.37701812558286
-1.4786446898244017,-2.2601279303660466,60.771404329804014
-1.45459690516662,-4.650318096501369,54.900826289243845
2.322921671344796,4.432774421130105,49.902403829343015
3.1104415879456866,-11.86434696679481,130.82229140285946
19.22177382577333,2.2782956126687797,83.69142080670639
6.315420505902412,-1.76581636788861,46.25952370644326
14.13936746129632,1.3591348560503416,171.59874187056624
-13.304588126093705,3.5132101829204765,39.28233716585541
-7.572092472507196,4.250470658888421,142.2182558965053
-7.118917917334643,-16.24832400486415,166.43430343978963
17.362492482043105,-5.999590412795737,81.9472157927228
-1.7104806564356443,-1.8670648630522415,14.263473561143257
11.662571833950153,-6.174937216462853,23.352421040083836
-0.5902221158439036,-10.465928267024871,176.21266100287014
3.2394365566916696,0.06702564600403277,28.33682416107932
0.12731882860502014,0.8776314916910192,193.37543548766877
13.986914116082831,1.7643125111597548,104.08185815391752
1.9524931271910844,-0.8244326573106577,141.2644992954545
1.7276413478225117,-6.030208520423004,85.61849067255297
-4.76628882106235,-0.5185557979361595,91.49577338416368
9.648635844945343,-6.401757084222358,24.351104056316174
8.409897921684383,-14.694848770165759,49.20934679318647
4.515604374844357,-6.248191981270944,23.062773016893058
2.850499769256864,-0.7402510881129041,95.73100235547085
-6.835815189334173,-2.8646916117778565,133.52835593176212
6.431404841972774,3.320005415987549,40.35715314998611
3.5410745611310395,-3.8711093963723155,165.70611848161752
15.252457317381507,-5.012505130111398,36.626609034131704
9.572468640658984,0.713593903473203,7.023582830452213
10.664044689280244,-0.2953400014182555,172.06795325342176
-4.739586332719056,17.411685722837177,170.6823351516285
-6.153288540323294,-2.1327377807034655,161.78016195594915
-8.54244724403832,-16.234703485513098,40.587409986467705
-8.769280647865848,10.777966050348063,99.71214651854837
-6.363528383615908,-13.822519476081444,70.17311567996525
6.531793793462417,-7.186926897695289,179.55432372474309
5.4241300631715506,3.936004116453284,171.77263531585348
6.877612060586325,2.2257788826234592,198.86882680346974
-0.24089829667079682,0.5579302426409435,74.85768393106052
-13.135161159534242,-14.238612993098343,49.86791035682814
6.352779426249628,8.776650411149008,95.28971136100095
12.486419004567056,13.15483942546616,65.72687972649919
9.034019394044542,-12.485957654596072,86.51911066372038
6.397469278595566,-3.6836140922837215,44.226171700041085
-11.471928991676549,-11.346078443032269,175.32564948791173
-0.18132636125600846,-1.7946868118024166,36.024555815468126
-8.424520841002984,-15.91757005066011,62.5420237018149
-9.013209125177077,-16.41965608454705,172.93518317824476
-0.9087994717595826,-5.3253597086948075,30.702090049587216
0.41825141744921457,0.11720456526643691,111.54510042359156
11.41425866956484,-4.009343091945926,198.61441063037515
0.020946183760166243,-5.879179385264866,166.3743455956179
-2.1398095583860672,7.746680683518866,184.4551648344522
-0.3014576851412328,0.20621092390555953,132.9956186703983
-1.5730516804388994,-2.8373463717096032,31.462521801118882
1.4749779901068996,-5.127282446509523,167.81468504604115
6.980785389935021,-6.973945088116542,70.37641363574987
2.567344581520441,1.0025068042339127,19.967206016354645
-12.503079813338665,3.3348095904065986,137.40534983651054
-8.297313481821954,-3.5577563847574893,50.11993752004034
-3.2277739244473347,-3.639743894897817,129.23419587563401
0.250114626500944,-1.0618248597848834,49.02448059212852
2.042783572834487,-0.22935183917683458,195.19832977792495
10.996756805529621,7.128254303692398,173.07674814404
-9.813104787855698,-5.569776539104273,167.30777938827717
-9.058310556934485,-16.182269776398968,59.37772360476718
3.6937018431488777,11.049506616242693,127.05022661952532
12.433538787310361,-3.0016874479339624,108.95438267370923
0.21519444558342543,-6.363335535726585,53.207618249375344
-3.2543893944145768,0.20948894362406353,166.28730624756932
-4.703107065451268,15.376696244836221,104.16496389201481
1.8293382633706605,2.625316108029351,160.11610498829546
-0.551245658982891,-0.27236088240953577,47.45711461541795
8.906106352221146,12.550712249990914,119.056186923769
-18.20892224391622,-5.780661311734019,28.454320205031046
1.2905262267029014,-3.178346574052606,184.36618139245198
1.1151729064546518,9.005584575533243,82.30601473957438
-0.4517404486028608,-0.7750682434968779,174.68612033893157
-6.495496409674828,-2.606794915839597,193.7094657525395
-0.053019443072289736,-1.3451533918318963,15.772286613824305
-3.956938034499502,6.644509824156068,36.132838833270455
16.476193372526218,2.402212831277026,124.64652967788301
-2.4314936245370653,11.30442706280972,164.32477513117965
-9.686257898299289,12.921286565105603,24.284490251126556
1.8516630901050648,17.24624801178774,51.194614545847195
-5.016037702572737,18.56385298477312,60.94391604858711
-7.047453554708588,11.614314134258262,78.33678058191616
-0.5028663047152674,8.65235595761013,65.26059233232806
-6.1401282158088035,-7.898861126524023,77.51077147349896
-9.986440238051506,9.474532079698346,126.05287042415539
4.1502990069620465,3.9958195114662853,83.16279968533836
11.316594438930627,-12.098750153756678,123.40485278713132
-3.911563270746293,17.034058167046076,32.30699392096894
5.8793660669051295,-12.491967764809562,28.94649610699318
2.1353184307642397,-8.366348326807831,195.37911200161213
1.5990498890765976,-3.225287426041947,131.84781575239606
-1.3010460549141718,-3.5326224074640638,193.89628370773937
5.1832488936332135,2.4400631766288696,198.92057001084027
-8.007730099885624,1.4618994005930621,88.73724026445555
-4.795868711556432,-11.892089972066172,115.14821036362983
-2.2977520544226326,-13.158121110873482,37.7436642115778
-16.486066275562152,3.2780463516848326,128.17965622327452
6.23822766445512,17.96478427838597,72.60215969592474
-2.0433745687099747,-0.9769161515626386,91.24152984220828
-3.3256743975974508,1.4156161053388046,190.97332971792528
-12.415808745170333,0.3625805364146512,116.46429931561148
0.06790724625452745,-0.04305020394577652,27.413061415239646
-0.7297398389249576,-18.41572486700023,66.55484425858609
-3.28098069265156,-19.092090180845528,47.5192873716868
-8.685718590448012,5.560154195174771,59.984796809163576
-14.154652092559843,-4.3413853022855395,125.05557947612114
-1.7098349095120187,-1.289601814985578,178.6775088888013
14.638966232921849,7.629532813715114,170.93260116737866
0.4352036397649027,-1.2556034343407396,168.53911947765602
5.079392498228181,-14.25058928934258,124.94918200335414
-5.089146760791176,1.1089287629854796,145.6671621936574
-5.399709275292074,-8.311218819831238,49.42288537385651
-0.16632600687519106,-0.5579039274282489,100.78149331258753
-3.8748686308347815,-2.70553378112669,131.20774092699784
-5.837998399787765,-1.4105090888543952,30.231115207711333
16.453002218393994,-10.995406782518424,147.29033713754717
3.961001262944953,-5.310304505782311,64.17861394650264
6.701554756950824,10.998592006507682,182.89565113309823
-2.140851354947074,0.16516047408779927,68.31690044620207
-1.6882057659687244,1.426945744876025,142.04204890330217
-15.948720958643158,7.396243515008773,72.8281915706556
-5.7345796818431385,-9.12475559185888,11.826974784084587
-1.6858913892738245,-2.7611794816477553,161.57710286375053
7.01445772659141,3.755853922443341,95.8367182124737
7.221351588233086,-7.837759599334071,159.6460269678144
3.4616401301939264,5.244854223034077,47.53579648367907
8.712565890050827,8.223342277177329,130.90664477061628
-5.008929661913721,14.165326631892146,43.839597318526046
5.669503940203747,-6.2065927101670075,176.06265256481578
-1.7186817178236968,-6.099811521224336,52.690116511867856
6.526472941145969,-2.213958588872989,167.9812896644641
2.902743245953496,-3.621240292787846,154.23417217344456
0.032118875278727844,-1.0922166881863191,150.7696797272425
