2.9168682037848868,16.902418365797843,70.31113300625292
17.54548777926416,1.4732165473304448,107.71712027373152
3.0843398013490946,-8.079657729069648,117.6208510472073
1.1750331809946846,-7.0864560009703945,140.9267885787863
11.538605130520686,-3.892510463587807,56.55240762075917
-0.8448296299891714,6.726945752773388,24.3146552178533
4.227235368821353,2.991711211282663,26.02792243457468
8.742409458668899,1.7799172435165054,6.527073682211104
3.897849858916933,19.544509776432513,120.25060257370939
0.3522309658456556,0.05892413917292897,110.91891302261925
7.993414268657077,17.414139877039666,25.180960576858567
-5.07130660894476,7.834518612529427,65.99010399773557
14.684914157548263,-8.102912648338924,137.44732548369961
-0.16187395920153042,0.048831322627464896,17.904589387099847
15.424985789568302,5.180596824823033,25.94692345943852
-9.070537917969222,8.16651155188568,9.02130228029623
-3.7576939356916372,1.7670313607417116,114.7957071767483
-5.8278104284527785,-12.965794602572089,73.22906647065568
7.903463536848748,-6.960440175667466,178.32601696778033
-5.1505127796513985,0.5170487146929111,36.37203983965864
8.774949172892203,2.9884690141682766,148.08097728162988
-12.096733430194652,-9.72477855481797,40.50603614527406
-1.6847485597322722,-7.16689224368783,43.0231736834934
-2.9740529014792085,8.881042761040321,104.20093061287056
7.014983152093327,0.24652789179006782,92.95251571511878
-1.8021020812707957,-7.307446239982482,158.69490461293938
4.866234353188673,-0.5821000651192509,193.8871746065421
8.553221609117864,9.112529177156645,181.07143163083927
3.306658610853588,-0.9329922550702138,83.86906134631944
-6.598394453013222,18.09872703436121,185.1505105637672
1.6971067120015406,4.485605769231734,30.24261451666259
0.5910822211073917,0.049846817289764755,15.613908342550431
-7.4588332295134805,-7.996103788880568,114.62355873528618
-5.032788738885204,10.863318871261407,74.92566554894873
0.8049048767687912,-8.495710106654474,37.91205780649391
4.88276003615627,-16.501103463571937,146.23258296110396
11.968672448312557,-15.513028692621337,128.4522195290366
4.285792746369952,13.60511550814157,11.20639002188366
-12.070777853538873,-0.9122007532971824,47.69477054591809
3.859876784268882,-14.6005319382907,177.41108035111117
-1.9786204752471226,10.285810791150848,115.96035972038725
-2.0889790958991874,-1.6914980786194562,174.5732358409855
-0.42862155812063885,-0.24499110015931305,58.54308187023538
-11.44925717328981,5.050680559547417,118.80857392451809
6.220696913710226,11.955250850267308,10.77423913702351
-18.73496990442585,-3.078300255773995,67.93453013326665
-1.7011983753601396,-13.81772429457164,150.5008226506725
11.465906256812442,10.560468907405763,165.55766752476444
-10.531593698852577,-5.622408150881141,101.30959749259128
-7.980012528348174,0.09751660977571973,43.6380088326757
5.24444397360243,-1.3525926784966082,108.58356692193276
1.8366931996595661,-0.24438699562127392,25.214721301956256
-1.4248551398260423,-6.051020306950403,193.17330396281386
14.16375698912929,-7.232778433639287,13.351482108221191
4.214432043519172,-6.20605114851922,105.81950376405666
0.1797852826122981,0.07840689166904359,51.63089571978179
17.559875999060605,-6.782621438160021,163.65820209971469
5.66087992950642,0.6495054009581819,55.670899221909686
0.8535765866692365,-1.0615278707118512,15.113792416723616
-6.027869490437499,-0.24560683050003768,64.2461189578382
2.512330160093023,16.129114877153377,102.4887553859276
-2.0682165796409113,13.784988526291947,166.17647771220513
-5.361141434272443,7.95990188480078,99.52053578686986
-9.331403826390417,-8.498923908849886,40.859134491951224
-13.32385920978147,1.9791283587406066,50.26197627797411
-0.5658009678150784,0.32344891809450615,197.87700475961282
0.30771144344613505,-0.207552309190111,134.19644337482
9.147561562946667,-2.0770183059017064,117.79099515828275
6.98726891008384,-10.089382027145575,143.99703178445043
7.430692538829338,-1.1719952883687015,41.91967449559457
-11.877193886221603,-7.207392170675862,189.86044249838156
1.06062600789104,-1.3188734113097873,13.178198405274589
12.228492299890021,-11.308115968590272,26.339681893555223
7.693096721565391,-6.885044286691343,70.33575776061534
-1.181455273401784,-0.5339532415972559,100.84823615552057
-0.12308922531602368,0.19941566652190393,165.66289342509512
-3.864267031989491,-15.581761835918721,78.9716652557362
1.5911940831052405,2.4634621837709885,137.24826265970626
1.3414510101608,4.627076336890281,52.839896556746524
5.164567888185405,9.822290765654135,87.92187927882713
4.8252395780229715,5.74952182141934,15.950017930834726
7.966992567512133,-7.549325053265584,22.40986053648335
-3.8988451038871195,-13.797419514369437,15.958963058299048
1.9661600475131178,-4.896721867327269,45.34173985843761
-8.296256032993007,0.9839459748660392,130.19384720537047
-8.294923145726584,2.118728105068408,80.07692827526532
2.583495797494383,3.255279337214071,24.75150103783217
-16.30268469070827,-5.975608113013192,147.3708048241581
6.6334257284515425,-17.1202786384086,181.1096822140829
0.722285432571444,-1.127722735143779,50.02945657032987
2.206796124420796,10.672588743201153,47.07114334035991
-1.3259642301562307,7.344323313906742,114.97626775203318
-3.9969419520215923,-3.407673670100377,54.137916531340835
4.295212294851805,-0.6728711898815725,80.80168759538127
-3.326185823446946,3.07288778324218,31.97539746482001
-7.081206158660063,17.297746826586643,152.1576933469972
-1.6320400487666533,-8.014957337332628,8.623397470366312
-5.883286411992604,0.6322735297538448,120.77499056196706
1.2581688863023583,-10.71138708724764,127.46328226504873
11.216535140694374,-3.702450652698547,39.199128427427944
-14.28550039862888,2.65077013819696,17.28342967687486
-0.7258453590607623,-0.42655599929468185,2.9109668477364847
-13.19661409381422,3.8138542921596494,72.50277033559263
-4.275196688757723,-6.201017696541667,88.52880542452361
0.1354464068319799,-0.6113001265688833,31.642914946228196
8.187280584497598,-11.159258319351407,81.64586654516212
-1.8526811186109682,-1.0139740122201708,117.27023069093208
1.442793912018305,3.4524688720632324,119.19677762850031
-0.5860298661256668,-10.645804522948692,80.26336821856907
-12.007196180518745,-0.5356638072616178,46.420276531947046
-18.102483444175682,6.914184547542598,104.94957689078895
3.5356035769508183,1.455741272422476,81.91616608300106
-0.31981024024998345,-5.451620975796525,136.02826677903326
-2.1368207252291636,-0.9163545929973403,30.18600388460988
17.823830523031866,-4.926855065273029,18.955503651255356
6.872449214607463,-3.7879378640665253,52.42564173122304
0.6028309363926047,-0.4271164589276805,98.6994432980119
13.05945705450168,-4.988799725712573,36.62859215545438
-15.41216370768408,-3.896103026447906,26.70874240062502
-3.7763915639559964,8.853344030942033,132.63167792788528
-8.151683302580185,3.040918544283157,178.02006117654554
-5.610406066464775,2.061510714697769,162.93141722053278
-1.7691338949409445,-6.062264001588482,110.47398095270684
-5.9567732630127574,2.1926075203026048,126.98282335841178
-6.350603168377173,-5.862742455222522,113.30538545747015
0.20887651307284805,-0.15523480908011345,170.77111404469818
-17.615254487160744,0.9590029667965393,56.177537083572645
-2.886604557427098,0.9841698786822453,121.81915960262207
-0.6156649118248659,8.068962404216919,81.87668101849248
3.83984872426763,12.194295638422702,175.10832695092492
-2.8969435795771963,-14.167047431297114,114.44308067985706
-3.794039151016627,-9.519611189235649,41.9820492918892
-1.4083058527213266,10.268466248507046,185.4916523511894
-10.852352369361986,12.274950188146503,24.16507908844747
3.3714866910720658,-2.279547778196542,107.91817960969834
-9.597538880932428,15.282657613779188,157.13822931471776
1.963416981048031,1.9913857379746738,96.0839126241886
-6.66810801178479,-11.558326662192586,186.52372226937555
19.70292188577975,1.3748898771944469,118.75366948566395
-0.7732191028599369,6.624983606058474,176.20362663153367
-1.193246284846725,-1.5841529465159623,106.46439800160026
-0.3000464591162201,8.085965838514774,40.11173226917049
17.245954184046997,9.14752421599546,61.353641206721974
-0.06856732153117194,6.450895311690199,180.29055156525436
-8.912817314730535,1.60214971999495,169.388643176999
6.021045670491311,15.377645583867302,118.31286108456116
-2.2665335781132323,0.9312196322231424,126.54027368857774
-4.95994369355234,0.16909128465904097,92.33903745065413
-0.3925785525278496,0.894379688168158,107.58719527519662
-2.8353991341907254,0.046000262382259766,137.93716195878778
0.5040864479835275,8.773158933385213,52.98068190462995
13.824957737522446,2.079544879548958,0.12177282229246522
3.661074188432037,-1.7208855138137353,64.27314333353804
-0.2950231406551625,5.169133411353189,36.67634977541005
-11.573240724418476,8.762591880444726,156.40846937925227
18.9943506008181,1.7878736384316656,73.85730295064789
2.128087307113999,-7.400318560830611,31.858665268245765
13.557537426836518,-2.818400640108867,11.694675159314084
15.354628006921493,7.889850354894696,96.2741755463816
1.7444622181913605,-4.243559399754467,173.91003699499723
14.163987927431117,-13.98731254757993,34.69878818848995
6.223395607646273,-1.623001437117377,45.096084688408936
14.970041622474387,-11.635765441600396,189.7664545530049
-6.377951528246577,-6.34171042178156,139.47507063504568
-0.9099117731165853,0.9720800019231789,31.523416595684452
0.12349159937420916,0.9894839620083079,32.42351528508329
-0.7188486410449677,9.512922239405851,112.60619615156338
1.7230476486067259,-6.125277600881554,135.01333571772494
-10.784181389404274,-3.8201261937692172,185.72572103873912
12.37238046525434,-4.423621619982556,166.5666884950934
2.29698369667885,1.1219348471800614,11.596439228942046
-4.474450283680756,-7.811114384538864,175.19813674232225
-1.195991261835282,-8.241776268983914,103.6147388336303
-2.2881839225674447,-2.4166191846974177,142.84085548521335
12.18612539723717,-2.180140722255174,188.90636707983575
-2.0487351175196626,-5.270090448949472,33.295644685267824
15.300840598247975,5.978690441291384,133.66561273200506
0.9201502746954299,0.5204628587862483,44.629856035586066
1.170852617573259,-3.068563056121434,157.70038337017638
-3.8005399971749063,4.268697879098025,6.935666708073218
5.428646017406078,-0.13609324678463638,0.22691049564229626
0.760885517742585,11.357603828501313,183.65317452190163
10.401791440857853,12.76742057555197,197.68255904524298
16.24692704147713,2.2183401006825094,133.78523454527823
-8.546159611491971,-18.007981153002866,151.3081641767332
9.758393508201445,-0.6945503029686994,149.26869528888116
10.683840060384252,2.947793282758864,75.407404541236
0.5250877070885753,-0.08101365359284818,188.0245319009521
10.028520558360174,-15.91611839527668,86.28174763617973
9.706935539604544,-2.545323399734902,50.66166989921585
8.574290400981464,12.122527573911757,60.47082202008516
8.243352966427924,-9.19119961362772,81.99129118483776
2.9493319013777266,0.2960132111708746,96.12745791927135
5.728924184139554,-9.930509301320482,25.830052017430916
4.768410684476961,0.6052663172513878,104.94124574111048
6.613760999278794,-13.987327291956218,29.831432035923754
-7.2178753344286415,15.78376396792446,135.45299253890119
-4.2366810061646545,-4.850659411771156,187.1153817843615
2.9337524391322054,4.598252674929622,190.72528426266422
-0.22766228775801767,-0.6519508681963093,91.5752454814764
-4.755371983890782,3.7958731602462437,85.9754155006244
-7.32349066324748,9.730349681066352,187.10249050714594
2.7024251698271105,-1.6374027328179337,90.08147962500446
-9.056656072160816,10.653977768455901,93.8865255358448
8.915207074839872,4.560499551087276,159.10610754364603
-12.142726769482804,14.915651101384354,61.24732318361905
16.361992223861215,7.825481855618122,144.07961712185656
-10.430693932952304,12.345180331097094,97.2770326178806
-13.266046617966568,0.24060526045246008,3.325844760830443
-8.017795976789246,5.288038851503152,149.14292229881846
-9.256922655485608,-2.337227966339482,177.83778599173766
4.000306944558555,-2.258462779856353,24.36934684577976
11.172834667807379,13.369277396092926,99.7058293178511
-3.160853439836061,9.37939232426254,16.55846560684857
0.5621394857152134,7.178784336080892,55.151917260092254
9.876307506850052,-1.5497487828853898,75.65642742747252
-17.535126070129284,-3.0527257954627123,137.4349097055124
5.255010589786135,4.000675797088527,96.11087225820197
-7.165069020618816,3.733153436098442,61.200515705942784
7.4437568380945605,-8.297710194056522,153.97723892623662
-7.47524976150775,2.17794234580873,21.567016451135324
3.0389541227475245,5.317545851900649,117.25120235264608
-14.98608950949602,-8.752727174500837,121.29158246905402
-1.806569377562958,14.202034460764175,51.46284665171681
0.22168086004760834,0.7532982376841381,174.88483271276505
-1.3716193584015295,-6.1400174264092495,114.20589456404626
-13.199307941675473,-5.285269268896782,42.371733930318946
-0.9921369209544635,0.753098432345125,179.2864707330028
-5.255577694681797,-7.232122897647456,154.70423129693535
8.963972831288457,14.199213111445696,5.24916475325421
1.757268363451643,2.342456843494915,37.062355595434404
4.911447517234083,-0.7621917528804119,107.63724237423521
-1.2397142383579125,3.5076559342496627,34.88351701565185
-11.39910632544514,10.920436265920367,137.2032645355895
-0.4805159731133661,-0.7500220095647139,157.26544246170081
4.966835224995019,19.224291795918372,74.49417161933754
8.283896375792045,-17.50866445398956,10.07680926970771
9.790832275635236,-9.593245155752312,145.5966028619663
1.3428940125203908,-0.0822723099223663,176.77053136508997
-3.642798948167455,5.5538343710642115,74.13300491292252
-16.332949801958943,1.328259616363266,102.31934445323245
5.305416071375259,3.442927174355333,146.77866405842198
2.486927357034119,0.3606060799122079,157.28132999879114
0.40186540773198454,19.946805799013305,99.5098734677742
2.7551774292581377,-5.391072312656769,164.7643087076839
-6.913630301721023,-17.469435680526917,28.69097143394921
-14.391118511698943,-4.080477098118882,63.870413657349225
2.118639377816757,2.2733495869813436,130.5078407921953
1.1950235625653411,3.777956161093288,117.03843427229808
12.907188469840248,-4.1618943621251905,19.68297228182818
-8.096447081522435,17.597946321907525,63.132977308421154
0.7313973717167103,1.3196908613761742,137.44971987948753
-0.9541550432096788,6.886518808850665,165.2466498135547
4.579838601285097,15.071205142040062,136.25442687486546
3.318864058624137,-3.432359835751928,26.907978005484434
17.781545735454603,2.361754177766337,95.32995117495918
-1.9581953745478118,-0.305088247375157,199.17301446199548
-12.752417444936821,6.4688419672485225,103.9996786259829
-1.824356488237317,12.59648117678171,90.3888330035679
2.7954982552547762,-0.7906448316974524,85.17139504644011
-16.423642182163512,7.583783410313164,99.24730195438782
-5.706167361425867,-0.31587900540689196,87.7299089049594
9.800921197770892,-3.6069976736420655,143.05627321534106
-6.151981499425639,-17.164870986559333,78.88822234460606
-0.5698438204262745,-0.18119524961517317,16.87644152690675
-3.112224610383538,-9.182342764031503,102.6828084953997
5.327207418599073,-12.093483999190582,159.47879825087261
-13.974378225324953,1.5067924342366479,18.82322394504905
11.886411225209697,8.953209065668517,162.6358258460718
2.6473222285999767,-8.257203329285922,170.26159251338174
4.3807446750850385,0.0036370643949503755,177.25520892208803
-8.222192150281469,-11.164083640814566,6.877547748213808
13.585388693732396,9.959411824162245,168.0837479977034
0.7130635186328411,-5.716457285919241,51.06889632857954
10.279418468635406,-10.229947155411642,107.86326276326224
-12.158673024709357,-2.472462915301466,72.0950743376394
-0.9720159406232798,4.219156297050786,31.66737061329854
-4.809952915672865,-1.871909475575113,51.216854730362684
-0.6574835502431313,3.6230718910117887,21.897886958814937
2.2061494634797727,-0.2603227786360612,125.48488763828072
3.4610127662790293,-6.072567708582277,155.14315148631795
-4.9768208401873,3.03870116642288,2.1313485366268647
0.4227624344776139,0.14099079693146438,156.3511860160049
9.573366087322562,7.5376424449493475,183.39794278529172
-2.0018122846110344,-15.078636702011336,180.4938812903879
12.229176568212544,9.255383325937453,63.33901739732799
2.714550005801487,-2.02741849735798,112.78602721789028
0.9163388089434211,5.629344038030034,190.87581757725923
-0.7266739686960464,-0.815221452565688,75.41104754875198
1.9501437347377415,-8.736304565655294,148.91904597626197
14.332162340745084,-4.338048054425312,161.646313699446
10.20040933585761,13.940462722181183,158.71896574054287
16.60784818468449,4.894310817284463,30.358447250603394
17.592066205888546,-3.0597406652376815,191.60430975696084
-0.09972179794654928,-0.45821879924724673,112.83114856137028
1.622648514255762,-12.23209074937592,59.738646441491404
-4.653012716021086,-3.700919594017774,94.12085059859392
15.842565628373396,4.774735341198992,188.43803262541235
-7.667496735171142,-9.05291585965992,95.82223607947455
-11.000859753587704,-12.501427766863065,8.179667717896045
-0.37177343762371673,4.773960696327005,53.55144245647865
9.468402870889298,-8.347333650436063,77.3974672090202
-1.130407451429163,-9.102953723388763,25.511592252445435
-7.327791670970571,14.500363286419454,42.810239395756234
10.96564982576769,-1.431325637520588,34.58921116310955
-0.7656677625502167,0.6740080520461432,121.44434878821883
3.087746180986708,-6.832791948577139,17.549314435052345
-8.853635354861009,6.2156200743627315,79.84767901052061
-1.6238538557833193,9.478435458558359,26.325972084346326
-11.522997979547233,-9.622903869503308,2.922525772761042
6.821123034210515,-2.686315839729995,104.21079611986796
-12.308788419275869,2.1988012061274427,90.74124272577635
0.8099709593511207,1.1708910119514517,51.38162741523465
2.2216870332338856,5.520803430171488,80.42006249848433
9.946492400241649,16.437332571301816,10.198201374828585
-0.02324042637679933,2.559494984600428,176.89158725845888
-8.664055793429833,-5.093869838195305,133.18048447857035
0.34531490011677424,-2.511045063206364,52.32308001406096
-9.755345904848435,11.434228115410182,150.46046469570115
-14.221651996024532,2.6583468303900277,117.0174253638979
1.253242767043993,-0.8511842896151813,175.59844745194582
-0.4586123331255556,2.876273642745928,14.788829880482691
-1.168677590031539,-2.3427758698409726,131.88000627082994
4.993114238349012,-17.00536729858685,100.43451930286034
-14.795308020917492,-8.487328539429095,97.3475201884172
-3.9102346597789497,-18.700380505582096,113.4382780204336
-4.365470409513271,-1.9497906700286145,75.3719068708171
-4.825971069312434,-1.9990532892352073,44.90933802680222
2.3983196400191753,1.7544838319709857,19.20070459830199
-3.4596161626074027,-2.2483489320509866,88.62977310643987
0.28524071513991467,9.468131129807984,196.66635469783066
-0.032454314657156404,0.00843371262529929,28.71055816929049
7.245969278083728,-2.393459527871127,62.48733173240461
-4.030471452347968,0.730948781794422,182.36733193666404
7.265221257291787,4.260084982694331,139.939640194087
-0.47164846088627993,8.509290840372351,81.13515108366774
-2.9188090239677873,3.321936990707097,124.95534630664638
-15.403239126142063,-0.6733525222295346,130.41655097575278
-12.587848184111854,4.363526639654532,167.258119135269
16.119979237339326,7.781898774521167,104.94874208296521
3.6302760491258472,-2.7180059305731383,12.138065288126953
10.340537182225198,-3.829176961037889,150.86374352287822
-4.822409396388377,-10.071432446206376,18.456180915372844
-1.4303680724445733,1.118624804393656,116.33575737021071
8.418540964674863,-12.570660201239864,94.76690842647821
7.751862780908764,7.076423257453441,2.808294494013497
2.691328058769534,1.2501312110151408,47.17663971954109
3.5136448228971733,13.92776073716076,134.70574236816398
18.261413342576134,6.32264042830388,179.85372166349498
-6.782528761452464,-11.361735199648177,26.65830042102668
-11.512078548698527,11.273283477555868,166.0592907814178
9.457379325356607,2.175235579231674,15.991755639395034
16.58683503438171,8.711120000702222,131.04523246571517
-16.046884729023823,-6.4115038476520105,177.56792148866677
-13.298888716020015,7.186020523039533,45.55121285817214
-4.963906745247045,-14.88718449593805,134.8360320621603
2.806684571912365,-6.263456152801784,23.53750847510434
-10.80577107628376,5.612728829858638,78.8208208608441
-0.8604626542155545,-2.3000098507044155,188.7332642579151
-12.726354226422634,-3.364387571357202,126.23099978734417
-7.177869561736019,10.996489790872234,93.92176482370971
8.64919335054162,-1.5308332483725449,160.3394110940366
6.993831810175113,-0.14240216916350792,112.43909047822491
1.6074376524607024,-18.470651164368718,58.98316067200622
-18.134095820998603,-0.05331939659691316,16.082350913470812
-2.4519677135043283,8.42184623009194,27.53825302293993
-2.8514992978089104,10.681407567364086,189.3974368520808
11.453344278512759,-13.58673672368922,189.3735796559526
3.445830484329427,3.4533737234152855,188.46369191670573
-17.478562256002878,4.338342586658998,134.60086842128894
-5.1453826576853166,-4.227645916492932,146.24811064386668
-0.008914594443709851,0.3502399729696358,164.69531223713423
0.6552751300904371,-0.39738414909932734,188.29427592844675
16.38290164259717,-2.3330822422164883,159.06109140519277
11.203252519247954,-14.50449954437475,10.89178657099501
9.575249767442923,-8.549614064498032,112.46947747719562
2.0938685007874485,0.06944326395306327,113.35832184300972
-3.1823056258209688,-2.8237070652231426,105.06215417082797
3.7765269842871314,6.726507146455867,23.21039947811796
-1.3762926177590067,-18.83208560668971,144.8380104824242
7.4663305834836295,-6.141335289069282,125.25024339881463
18.8974317763049,2.715718491944426,142.49360200084945
-5.693224505255023,-4.123581136833366,160.39711183407246
-7.962099974388441,4.036829478564161,87.88879224099091
-0.04887256807163518,0.09164419446980704,177.47588483514352
-0.638328079071742,1.0249215000522336,60.878163676917566
3.7569125082684116,4.724698997001118,120.05921944053182
-4.491033351631505,2.335971607625385,105.06566853896165
-0.28956951204337156,-0.5094938164605157,178.9806025779769
16.815878718736858,-6.5784750663993705,80.0390170374887
5.454346433656723,-4.067482660647935,1.3608704415951856
-6.787702678918662,6.252641834839556,187.26761403819057
-16.73676047731617,1.9231226409335613,26.358475479729094
-0.16548783722765592,-0.05977406015390871,156.10445138203488
6.413593869654928,4.23710261869734,38.17033296683534
-11.474263696197909,3.807481234772444,88.6493860491129
6.334615812568794,-1.9559847166691835,0.5878299966989742
-0.8869916934282327,0.6251128715584211,82.57113003262737
-4.128028854984352,-12.360363739337759,89.22271373907853
-2.8773956365352964,0.3428963971662263,53.387531771033856
-12.147414778688113,-6.174511024622094,153.792963550131
8.097785502082475,-0.7992816304968552,57.29451452696714
5.101409313923273,6.315056074923344,169.18180017927122
-5.647627778647806,-9.70023623611724,28.646530943467784
7.0200125428862625,-4.903333922850385,55.61049535181228
-6.654553616097007,2.750241820434212,30.23307511134434
8.680618876345722,-6.3119342702778125,102.73736354146085
-9.398826950397282,-4.905937232884317,95.38256022167386
15.291696889426483,6.006400435558143,166.07010407930892
3.944960388395013,1.8777193232443758,166.46677839174848
-5.550094841559503,7.92379501665606,199.9267528802351
-9.84169341037371,8.164364903792533,25.72824545496566
-1.5918189197079504,0.7375569170768997,25.031616844533033
3.0410298716754705,1.5806819591721173,78.14265198739318
11.528603677033688,-9.36762074612183,43.12297819788249
6.131130569133786,-14.641118940180844,191.06134380142535
0.553863187284098,-8.382221332434746,2.388985473164018
10.914299854460435,-7.139251338204598,140.66218864503858
-10.355991275617246,-13.260376495850966,55.313938558873765
12.333061038248237,14.856643969566518,122.60756819277768
7.99096318904307,-2.0455433516956094,129.46837849607195
7.133557039230465,-1.470067994928299,9.189238355409435
6.4815213884181775,14.553634641031092,126.03476985021307
-0.8158069199441379,1.221818731929208,59.07765458650041
6.157438337173856,17.025880113884515,61.191129772608946
-4.4288830171024705,9.784861245286729,18.877051533696452
-7.165444363847584,3.8474778981285054,118.95995627862177
0.8708962622805909,-1.6820722005246125,156.97150765326032
0.7294497119407162,-5.6024127248280955,11.067408212190411
1.384079181745221,-12.76753195100065,177.92380641081024
1.4704757727238007,-1.3486091577382229,160.89432463499634
-9.732001010631182,13.054450315646339,80.30255671138427
4.599087378640108,12.322867085083624,172.65417407553687
-3.3036389049587056,-12.57403440121352,153.2433926155842
5.452076454407385,-12.40563035558125,174.344456588311
6.148992782042722,-12.46242624438568,170.21075883975908
-10.024291873277212,-12.219736610564173,64.0944595840661
-2.3213152300770545,5.492130706436481,92.54166825730555
-1.3788856592976024,-12.756244917709562,158.20861878153661
12.604283473736354,3.448051241083703,76.97338398249491
-1.3863052243603893,-11.072958510117674,98.34835266779068
-12.1811582870671,9.823989790016594,2.070904565136611
-5.388395105710147,7.316178793368073,18.042421756729343
-5.683853898527934,-2.8214373665926873,178.47051409403937
0.37030975928876153,-4.197761564566881,4.535054530789995
5.261949971612791,10.933264385023456,122.14899774792327
3.0166165169689143,5.270028059029926,22.741943141668862
-0.11587212994924188,-0.024612117521899263,104.65905856179117
9.89113293128637,0.744167416652174,71.44664008368183
3.0205286085107512,-3.4289963473922107,176.31479790353785
-0.32438446557614936,-0.3738531001825516,175.39961522271784
-9.66177324229629,17.355454721432526,78.02399839841847
-3.7974554161214757,-1.499026974994074,64.184857511057
-7.478731144646394,5.622950721139209,66.70211737159202
-5.045264254028629,-1.367221831777436,193.26850684742172
-2.0305397237775975,6.699555568772791,185.26004611307073
10.978437943449814,15.89320493413705,112.68037211450262
0.6802162679273044,-0.2014955585259728,72.05495010832361
6.373394936504086,-10.554816215374657,101.1702191214704
12.303185723776615,5.051117041603427,141.04846054470295
10.38007366214495,2.50968777375197,93.7148258877554
-1.701331927165625,2.27252210020166,34.93703612142822
4.442953309859533,-13.222487283468825,157.0641731871138
-0.6708260562233263,0.09887386906344085,29.115802061963514
-2.782379359769272,-2.545012301059845,80.67094716379859
0.009794730480794283,-1.548584877507991,28.11456506611474
-3.838322522276718,-8.307416223848463,106.69448963418242
7.3514526313029025,-16.282122208878935,107.3277448033964
8.786470292394558,5.29005959061477,157.05055892057456
0.1440779339898565,1.2128566160969807,182.20780580923525
-10.216250909533034,0.3650358645146661,27.631359471424986
-4.472894269694237,18.809921779661767,176.65482535051135
-15.024642162532434,-5.650453661156747,42.925606752136545
0.2692135241987682,5.129278423611123,166.43875725536392
-0.46954424249984517,0.30579629981309203,77.46333308097584
17.943997256680408,-0.40772865094038296,11.786322979939534
6.064768485565589,-4.804505836758161,1.793670814035675
-4.031001166446611,4.262534125551789,129.32984163295936
2.794629149896554,-9.86646335415988,131.79127637429525
-16.041031610521124,-7.0170688780168256,107.93412742785291
3.775935369215011,-11.443313207536029,180.80935006264735
17.077205850754428,-8.803523806852715,141.9303636178075
0.9388466856560852,-16.07407236459384,57.70211365683491
1.4750956144540892,16.84997311958996,186.8810337104349
2.8148399810543374,0.8802334254523237,128.43137055175072
16.325783810536393,6.919554527922541,23.592050219005188
8.005610548340911,-10.918571010674517,153.85870490398761
6.899425094609725,-13.30304275084581,23.32592155708213
-14.567462016992755,-3.2205388309875813,116.3783717686935
-5.484854669236065,-8.005689259824335,25.218273819110305
14.601410208347346,-13.24006362068866,180.31884373938712
1.4014283497331992,-8.969837169879398,35.27336448117446
1.2347712803531996,-1.6627504645276359,58.161936113837044
3.639922055170593,-2.600333979322598,110.50100569177374
3.4377232586339344,-3.107763021177087,182.4036324811017
-1.4242846757010739,-3.455857520693617,58.07259563334104
3.750342663051719,-5.1190374811688395,116.70826415885918
9.658069595637016,-0.49772450823019654,24.60597973762524
-7.8778359411224175,-8.657795737833865,29.234420925525416
-4.335190039603128,7.156063421277386,34.751656753146555
2.7720351179238327,-4.284895563576863,193.13226933663017
1.5725087890007523,8.220394169625038,40.223952739226895
16.568153589700955,8.382192856726347,55.46972471000562
-9.346840090427074,0.0712550664698958,9.472612017934278
1.2418284617282687,-0.9690342222780777,119.26097249180233
0.002027252888429779,0.1300586548932252,112.22914615526503
6.722870701079596,-13.380116890006184,135.88691268114678
-1.7078999857195354,-10.449657842742997,31.091707656000956
-0.6768799789089781,-0.26561253034488946,7.763825092554444
-11.086368517592712,6.483187045225523,146.3918170915884
-0.537403752555212,-10.135294849618054,55.65683444373883
-11.913504943426236,6.703755212440063,53.968032056083985
1.8911981182013573,-5.509400958313029,78.43800026729353
-0.7551983163158615,6.888396160083965,3.4258729437665947
-0.1040201281674495,-0.19159532801416876,37.13592615122327
-1.2517385572811266,-1.1209715025482565,161.1740987305931
8.36030763009206,-5.21642200674454,70.40427379342881
-3.928393036293717,-9.084900263431866,29.941425915475016
-1.6515163481926658,-7.872895892773229,34.8715194848775
4.874281161688446,17.895320582263164,183.37016537289938
-13.214094010570374,-10.100325641525547,52.71996314999121
3.2309856552202576,-13.240882529356693,156.32144730441624
7.049800003633748,18.033862822828954,159.1477108264349
2.159092462834436,-1.5060276342622496,26.85613131724962
-9.660261291391873,3.37622194264643,198.98642678395458
19.402486492669638,-1.4467065907065413,68.10388564020025
5.872008367434267,12.05261057184517,51.26373493092602
-1.906609037315827,-3.310632833899932,111.07550105950435
-10.308427190230017,0.922363219093172,86.72930467291778
2.963067015432204,2.668541155744137,160.94551996239193
6.437315337887873,-5.287898946930404,142.2107361369888
-2.5804393189693404,-3.713350205180086,3.1884407635105694
2.6476734664936616,3.6499939757821322,166.0138458686671
14.878121406674751,-8.823559767689895,129.59789346853162
-4.4238511616131655,-4.408583071098886,13.63198040024911
0.15268743277378843,0.03268124782868884,108.62061212599292
-11.899153312896068,-3.2831438239899438,185.5175411789154
15.015439556997615,3.254755632730369,133.8643351547881
-0.342486669068317,0.18148838800582628,159.3166418808147
5.100839873729248,7.8921566754338075,150.67286961858323
16.76130807847022,-5.256700901448843,181.6107135609705
-9.162789317944988,7.605885827820311,64.0293013536835
-0.035194992151977245,-0.09592107054577702,40.85170920371595
-16.335851557085725,-10.034579292253582,10.839252705604906
-5.070595922508491,11.820040144590957,115.76748240335182
6.170501240923016,7.42979440297613,199.78654377038373
-9.541192401890415,-12.96001419703274,163.49875081886444
-13.790947677810623,-1.4727582473619238,150.92364170779285
-19.293857757422533,-4.474868250632795,102.63388041229958
11.430152701699223,-8.677749230875337,75.63763706267308
0.4456275451244231,0.332785358157824,96.75908388339352
8.80913452680083,-17.939374756444284,71.7026633436262
2.193634975067878,5.7423233421742665,8.696762872306074
-0.35447354369452955,-16.14720526333366,78.84406099141907
-0.9347307588777249,2.1939855306001745,46.61439331532584
3.9332650176377255,1.2252738499181504,102.80854466567135
16.948122882525922,-2.5572342962944106,137.50858279482517
0.6943726336435337,0.5548807088474845,48.54283205369494
0.7778434310411031,4.177238952416087,80.49330794928335
13.396544191695867,10.163103768023042,4.0969457167513434
-13.331114176565181,1.7820105230501413,9.900867710640583
-3.549875993779466,-12.324818807293019,30.634026218776377
-3.229435950696049,-3.4183182527606704,184.66758753105714
7.293275538794309,13.788030774655303,146.63273235204818
-12.196203582487799,11.369549983564399,183.84656901043942
0.17486350753719068,0.2339513215824579,133.609104031832
-4.732613544080747,1.442754543583684,130.30612547928337
-0.6898158829244291,8.90872410776785,105.8177768411559
-1.2646442382148875,2.9316840382065537,190.83917378778955
-3.2094100375596555,6.420391377929528,128.86130302078266
-1.3239945131375372,-2.682986961572751,164.46381558534804
-5.764873266043006,-3.814415183820577,116.8836786851868
5.146935883361109,13.624608842864953,85.06556795003537
5.88901256248865,-4.602766398231612,65.44021380745669
-0.8721653534441849,13.858081123189915,199.55577946195712
11.093853022161165,10.427420100136294,19.344047107013097
9.549433238492337,9.37211803502054,120.19709673543717
7.279711522433038,-0.07313825894311529,60.82515374913746
-6.894869375603279,9.774254559572665,174.8533692157586
-4.722129278240782,5.356510347079259,61.05209600517605
13.041703599461561,-1.471738357769549,179.2198530396746
-6.091178800491828,10.850502901817451,169.37785560350903
-3.448708802196473,-11.002194558604929,71.28810899168752
0.5488756592838154,-4.034287442722027,196.51507013321768
-8.699802468890246,-11.86400163994867,96.22573106371686
-9.083717603421105,-6.435216586058141,145.82275140550638
-12.022914904414735,-9.080433420977444,1.7127179711290186
-7.787271301601585,-11.112458171567315,8.829578633115908
-9.79073434179977,-3.6633424473954,122.4836048446878
-1.0463253518465345,-4.824083873150365,115.86598897785171
9.191547641345469,-10.719416651008869,45.092464556367574
-0.4492762888189176,8.969061088033463,194.59531644357222
-7.694983755570714,17.935674008619408,42.15235478059674
0.1330647540096772,0.12052512332564223,115.19502627864273
3.228932606262303,-2.0828362491864576,179.53182030825502
1.1138758960140145,0.29374118922233566,105.61062805469786
-2.3202151616700455,-1.6207814127883968,134.7777218672706
-3.660755099217675,-16.748087911429597,68.38704901045026
-0.5720518189298085,-5.063547405670144,182.32766265498657
1.6046023751697653,3.117949089823386,166.87669286639775
0.8939282270367133,-1.3818944256324772,59.21052538911384
-0.006527399547149713,-0.0020532876752223186,197.89494241706865
7.496475482006103,8.411845924423428,125.14053758266921
-2.2687394683784023,2.706151100297274,53.77929187893273
2.289327144662971,5.87219085751006,198.44281905806406
-4.021554994430073,-2.406307766934199,182.5532473322506
-14.060186801608818,6.654963688297538,163.78759846226805
-0.010520541454366532,-10.449252792140745,81.9945866249461
-9.7707521290577,5.037788834395164,4.535508320028447
16.39756671088295,-9.584088795432134,78.17489579708827
0.5261936053057045,-19.92502332989866,85.54987083728265
-10.362732572902006,12.508128864614767,140.0749839416709
-1.564714053396504,4.16027984834733,97.51563592263501
-14.804828367715169,9.748913414607502,36.00592875048334
-5.807384331265978,1.6872056644907365,62.53252227255335
2.3169305840656076,0.42284764503287603,32.84686356445283
-9.623152565663904,8.729825991264175,106.45294906659126
-1.109011049466656,-7.658848717670641,2.3389185348803077
13.823513237315066,3.502255767792756,51.53748162053016
2.3467781227038214,5.513951381709546,170.3729994393024
0.5937104250724138,2.092829618896428,163.67263990738894
8.725730365253629,5.428033820952996,20.211957090756073
-1.3906214733893985,-1.2083725433571553,11.384536352958952
2.5718101808517795,-1.7573926811982112,140.18482812212923
-3.3987319349865937,14.224197665459391,91.43329946525216
6.049248495666482,-15.063874394708865,175.18545626864403
0.19638201123464097,-0.5373589488557308,52.266626560052096
-1.7149229116615592,-5.332136403342123,2.6300826303926383
-0.9932015295274014,-0.10114388081247548,53.46027332047587
-7.003359329140364,12.04811909583687,191.0593789306319
-4.19670123843854,10.215721601800794,67.01985213856415
-10.656321831353244,3.1631178195223195,137.37098490593732
17.819952441941826,-5.285421745146368,34.5768101548491
-2.196904493017963,-2.6055201552616105,114.89681033503129
1.774673192392499,-12.800907105631866,159.13202186508346
-0.20350181649142743,6.678712922533074,179.60556368623094
12.70694455882944,1.4288222367326457,51.854744135328225
2.213491054132857,-3.246501040598169,57.3764170857969
-8.402995227580089,8.593406288601987,194.09414752690967
11.839059828079083,4.876471429946534,163.60845048073892
-13.409227626335955,-1.3502017489395328,38.191773195878945
-3.9520345859506247,13.995781572233685,88.21321469666236
8.044084052737158,11.11569216802874,36.333624477224014
-2.449206672810788,7.164626592857961,95.64924690742713
-0.6820898527975809,0.6224180719788768,180.42336593212463
3.26250970606276,-3.556270741519943,188.46472127126285
7.179193397185001,-5.114636386694607,165.15619071000017
0.00022386787530310215,0.000178963247652807,16.432923213868843
3.6105319124577404,-1.2634789242008246,25.96272872700871
-0.27611370784982714,-0.13109228510760984,78.6255785203346
-11.094478602722234,-7.863701708324088,28.803526366028365
-3.2073132754116376,-5.6511340218019015,174.04998806148208
-12.403831765276067,-9.584643619029464,178.81799359774752
-7.776987641321628,-6.650192637156384,108.36850591748994
9.905910758824577,0.8153221704294928,52.233129236268084
-1.992084870560535,-11.744493428441427,40.78359964448879
12.385601483002585,-13.196336286951935,54.4702183458367
-2.7992826909113058,-3.2518025205466543,60.587218436692325
-5.614014781205703,2.579877851054509,78.50988042329374
5.6792930186554385,-19.07484183260091,122.37508588512489
1.6958539092308582,-2.66397380797563,108.26808539590947
-1.4685914516049712,-11.403346468502333,125.12448833553269
-4.134178608945023,4.082689908365693,87.78952678437658
2.155507803677953,-1.4476794177387668,199.27105658812314
-6.17153378712459,9.800015773083071,107.2368684122289
4.361114935854449,3.708704057498804,138.74460728154145
4.333728208894501,-1.4589524544593873,78.25750841713447
-1.8977820202387978,4.351648073011892,58.53315514923434
-3.2829629386995123,-16.13915899172953,13.096339555529578
13.019681517523455,9.300950972878402,168.55199407950147
4.46961569551813,-10.891110558895747,110.5654888384894
-1.4372904550465642,18.13817177861192,174.97989477351592
6.8777332503992294,-1.6659122373426296,155.14464479208291
2.0713647608563486,-14.707879764347778,196.65148999975216
-2.614587668029297,-10.356909424674326,74.02300247513256
2.6720736535036087,-2.115512961454118,55.851576517894074
16.045294985431603,-9.835199666342692,60.50542107946833
-7.522132092357666,-4.324969937265376,10.440617990796675
6.581954539575948,4.525104884656749,167.4380755837702
9.925414684901963,10.470222923252917,165.47120328712742
13.541421039119339,-2.246637489544143,168.5725099775377
0.29615739860479723,2.7785651736842447,106.18037036425872
-4.315830189983395,5.866506676383476,45.04685761592591
-2.186244738745201,-7.811672004320957,165.7947833265921
-8.065782649333086,13.90739418480798,9.240766994154859
-8.039377649156494,-14.699841090735283,177.64226901496937
-1.1377725083860566,0.11324232172309347,144.35262513435063
2.0992951182641764,-0.9097789678938897,44.4710190420978
-3.5002218269458867,0.20927070167953382,112.04301576354625
-1.0942463496747827,3.2749852174910674,137.068994438818
5.39507030951981,-6.96627696270274,144.3213058803089
-1.5060366867519932,-0.021215153202457135,49.152305410384045
-13.605961026767455,10.355117854459296,29.11851800511971
-0.20970165924335535,-2.197107527352361,47.8714198387066
-0.22866828906271616,0.6809961339033824,94.6624794898516
1.2221075509090351,3.3330315278539273,161.2288078486704
-2.3917221242036057,0.7805008791743112,142.42694238193582
1.6475992824169323,1.4414355904270002,96.01538569381454
-8.687367572264423,-8.595336969350111,36.27593713188377
9.915887058328758,-9.266097296256197,35.91421226837639
3.484158331820866,-1.710970048266145,62.250235633219965
19.116041064491093,5.437074952948089,198.130485351073
-0.4866093802329807,2.445909896037112,1.1234540232295975
7.458129953012858,12.012309176631277,166.53290842782633
-0.5535344674346883,2.1463646442914843,39.07156640355765
2.7993404495509915,-12.05494168079195,118.92176196169646
-11.51894497932524,7.929211502507994,162.93614855751954
0.504568772394001,-0.9758408572362822,21.91726332463424
8.433332307473254,12.741407354931885,135.57448635424507
-4.598649125548843,6.39405887263816,182.68907081390608
-3.1524384242755135,7.049902374664057,186.55832168634728
-13.129149608831767,-3.3303798363600414,64.04833616115408
-1.3854001764748929,-1.55460542923279,82.70725790480486
-5.089708782982888,7.42195550371303,191.80136778187415
12.004027801057036,9.870695866784875,138.00442734464607
3.7392708037341285,4.76190559438991,136.92923495852204
-7.862134404842945,-7.365276952992141,176.53942102509302
-2.8943553288210246,3.9027341353183327,156.56697248293673
-0.776278853049444,16.12381412143257,110.88111955400683
-13.924841189307703,1.7666799890828702,199.31428844307578
0.05322530746065741,0.1635806541319538,85.31317136534878
2.543761835383962,-13.572898675727645,5.13898254326195
-7.105511302974788,-13.194402620774285,187.98650668405406
6.06947400764501,4.70419220732794,145.8930770639409
13.988264880366735,-9.858145657383401,185.80752488388438
-8.770843520309816,-17.348506027570657,148.72092406077505
-15.998493287956261,10.626805376578057,151.02922809094446
5.115483765950774,6.313628949879144,102.84871987071102
13.041997177688883,-8.691893709220235,33.775965346384986
3.374343469720873,17.655592746270223,195.65473082068831
-4.813335676836595,19.375907772246492,173.19520865018688
-14.141967380609183,-9.725619858371132,161.99894228408272
3.3061415511460646,15.265864294825434,173.49626311647387
2.1746560680028657,-2.9575768051263673,73.05734873404784
-1.6872108500491332,-0.6116149407325451,68.99380874507767
1.3361759260467907,-3.04434349783902,167.83088176058007
12.71333114029763,2.306250225274512,94.20093082713474
-13.590720870054003,-3.855781704286198,53.39192454617567
-4.987987409673894,-1.7000477789764523,59.60620934399778
12.423829503143766,0.06450718230001665,189.8316497329723
1.6915715292815672,2.5997410912691583,121.72755479325576
-8.520681676053256,-6.022918771751954,44.226372983701445
-3.349395546852238,-6.315935824981102,38.39957967620504
15.52871007903973,5.051481984283423,8.919441205754207
1.1881146125512596,-1.9856700866696975,75.35299598343815
-6.550913054262053,-9.006425353420395,130.6156085629196
-15.377422568394719,1.7517951560216671,121.78685805171312
-4.933782911445814,9.351497983199277,28.38587416596181
-2.676520902402055,2.6725539573497126,113.57948411337051
-8.494245696270376,-9.169929906106447,13.692288411973852
7.083453470503532,14.337463831282701,177.48694577967743
-8.147379667904975,17.724614428538228,4.639943788188106
16.874320270559018,-9.281288076544827,4.291045266580595
-16.297790255159764,-10.049143262048363,2.4214357778850504
-0.46160853532004203,15.663932099614003,110.51112742399658
-12.388835413352218,-11.059634550936462,75.10912058082954
-7.23092265112828,-2.306363283807984,159.21926119824775
-4.5156375677678895,-7.738751814813422,151.9811306625868
-4.441510569200173,-8.113244329875911,57.442034722134494
5.582937640150716,-0.8572852021136053,176.37734101987274
9.010326324677512,9.49437155665753,22.679331633765855
-11.529391513634879,9.669128675068373,161.05458695135192
13.167036600604757,-8.650722417428714,174.86208091356377
5.180585284048598,12.303630085893479,142.79916636270218
2.8684432118403427,5.365899451182188,160.7880008035643
-1.1958237626685215,-5.080566608281418,111.17305182353854
-6.783386394382861,10.915113328661551,108.88541306746858
-0.18996053911636068,5.563893071709083,12.46215415004337
-1.3760644701108578,-11.15714377339791,42.2592047038376
9.31873375753061,-4.821589141762062,14.027137053514904
12.91207390907483,-2.3314847097844296,95.13992502113709
-6.514015210415016,-17.278842262810823,96.06634194881576
18.279894945580132,-0.721036413479196,174.03415995761935
8.025325185450468,4.24366049059842,29.236193333703064
0.32935557930073084,11.958581392968927,195.95509903938444
-2.634582896959115,6.903047436595623,18.25380965114869
7.933646230524473,3.0758529407206257,102.75193048907178
5.600961838088714,-3.334155456285097,162.73973065641917
-4.806294516300105,10.694326670748845,182.56634669594538
-19.741246947859192,-0.43056878456461206,84.04021132803541
-2.410129320360847,0.13185371941378454,179.12179533537113
2.62008690120728,4.019736502398432,70.69245049123576
-1.4340520652610913,-0.8765329278268903,23.64668145723399
-0.4453418059010971,-1.0619417926378096,118.61271518627181
-6.703064718776768,-0.4258621517172478,148.50279131042717
3.5540905016413777,3.70551566200424,94.95232134451884
-5.905491115307239,8.445530848276828,44.319044403240746
0.032817215676179526,-0.06811607618873619,24.761643917594412
-5.451718544178487,-1.2689198110951991,111.20888413281882
-1.4074036710872215,-3.839711555765186,195.01757964520513
-11.358261054824549,-7.37078940955911,8.315866973995046
10.45532746416797,-15.445918631992983,9.093824864774213
-13.968920066098594,0.7407385498607973,110.96853000553104
-17.14047742659736,-4.01536195115665,159.07390450304803
3.2597796673421207,-18.126435948336344,8.281933365529227
-2.05610694421993,-2.0533744441030533,8.867111880899504
1.2060057632457042,-0.378092230399317,120.79018994294066
17.47316588308017,8.915415938193982,63.16327300071616
8.214907211011383,-4.298142166968172,88.0035993426671
6.914239231595398,-15.672354957488412,154.98437539238466
-1.2352456583687987,0.9704945926010519,76.13733898550441
-2.974728873655022,6.581299430309172,199.42309769377724
2.6082002945973133,1.820667066966843,191.56101230549362
13.252891667597668,-3.201329897594323,28.050551893573484
-1.5004396446528685,-4.577564730447382,42.16499505525915
-10.406672409667088,-0.9683745667030936,60.73605412002443
-0.47648395820267164,-1.021005504012678,60.89552216321814
7.119283991614287,5.981650151943726,5.291121073922311
1.0631453675803089,0.9092511196824499,33.171319688727195
12.305358479085031,-1.124073484692449,112.98003790816989
4.27029060587298,-4.760946539295099,90.75494674831862
4.226423697878725,-8.676382920005098,153.32691259553422
-3.077087193414004,0.347809432061056,139.14439312885406
0.37001823045886845,-2.073357270086763,10.668112727444058
-3.7505408879462223,-0.4702926045322512,196.07626678764882
-17.62883609667603,-9.369605037042422,14.853784861818076
9.077641548102388,2.030899240676717,117.04113118033008
-1.0274612375580399,-0.5153373494134207,185.70667173153228
-3.295486017921579,-5.64050528339153,112.95688076185306
-3.9994770852892,17.188122892527318,84.14435003401746
-1.5896034243064088,-14.530493697244877,17.87220501607054
-4.968570568048172,-0.2932525161690396,180.34755778789895
4.305764444262496,-17.427629477919705,159.78365876883876
-6.132546278142585,-14.24281187868659,73.19719883274934
-15.518029342277316,1.087114240792894,63.42847534829594
-0.8791944068329778,-5.411366219566134,196.57533780873834
-9.958061878263244,-9.389521685028196,131.694103638833
-5.9130718250451055,-0.004146443052142626,131.8437164746804
-4.727151604530586,6.088670652949388,6.945734042844265
-9.049008664301244,-12.89962321575026,27.115340137198384
-0.40476274332748147,1.40811026139531,69.59618051752659
-9.320119901030782,-10.476296580096385,167.2539037708997
4.834568849039109,-2.1992237892571778,142.78718665936165
-3.40447717214347,11.285070151838012,181.96354458807178
-0.9351514622948215,-3.13928553147007,126.60625811655552
-3.3482196985007757,0.36971521053059414,113.46261455083524
-4.9489191062164295,-1.987925043055262,166.65907876561192
6.97382694130067,11.524534931249336,114.32279724058243
0.450687251680285,5.462256041836446,21.787193821731087
1.3146134750562266,-1.7454197213976577,99.73313251221138
-17.73618015384394,7.410142422199811,32.32515424170907
-0.7800330448291027,0.9336728593129916,179.42070392865338
-3.6330862292090713,-17.158156119324907,23.75064930075599
-5.136545434594644,18.889041656981856,62.05972763543022
2.1752205439422063,11.87188521122214,109.29530939487344
0.20587282341495441,0.3786583970283725,72.09435736932095
-3.2433778962045685,1.8674530814120707,188.48812289387746
-5.143887111825062,-2.675467415074228,84.37467650762507
