-98.52541265350375,0.26667648486525297,84.94723075467614
-37.6540197071988,0.7145323755426868,30.42906647597147
-47.595695673332884,0.08417727888507831,-57.67192613064195
-57.133483994614984,0.6908674779611025,-56.65600197503443
114.8177840333296,0.28744410089654393,-139.61970926172427
82.23200736966518,0.16789652725927673,-85.47074820234639
-62.965389720665044,0.5016874962410234,19.019893267950454
68.56037344646381,0.7765848950948215,142.62754387998186
33.36448708481331,0.6317847623508972,2.8277487058354667
201.14978034629675,0.3561659123553106,24.880201381100598
-135.53597165363075,0.30437122030839947,-75.97996695740503
77.37551681346012,0.913806160407947,201.33228580819588
-217.76197929808058,0.8856232577845424,119.25387015198183
-20.939284344483905,0.6331720213764521,75.42120886393275
-90.25147065440817,0.5206380050777788,-89.98992458841649
1.9375886730717933,0.8889498860151548,-22.447769660266843
141.64325875869966,0.3366876732731934,123.59182530072445
134.00123855868296,0.09468917322610293,58.50856219618119
-20.412418590391518,0.18731985101661508,38.069749006294934
16.490013411813088,0.9148734904421395,77.78570955802144
-164.1199278530982,0.6114494822063321,33.700829954693845
30.33849159024897,0.6806344352963489,-33.511309956646805
-106.28965106332235,0.21235346754229123,98.5834340400404
-54.32284914982287,0.7952916922959525,-46.69916232434092
-83.32219210815128,0.7021964914748957,11.825775528848158
-22.276566176731027,0.25725338172839296,-181.51099977717965
36.055276441034444,0.7303856672457263,43.10069260895637
-183.61757714257527,0.1962718277475115,-21.219650903043068
-102.67404150546626,0.3252094520731541,-54.93380931313398
66.98071059133642,0.12001098695218448,74.20066440605663
75.64539294175545,0.07574278830713321,193.52646589210946
-18.033756834734035,0.5113311676652912,-65.1528656027513
51.78242677952265,0.08079747502480428,-77.26282391165684
49.938354817758054,0.7590712683810762,31.67542028357043
-11.89706223283969,0.8834842568714991,-63.647457377163086
50.44709991131362,0.27859739708981623,-102.1867027395609
-96.1409632326672,0.7373218008521004,11.47529615541614
-154.10289978213623,0.27262929608278896,-13.306957343740923
67.10197000263152,0.23398599336724302,-104.0388453221813
-136.2290843662724,0.4123295877573021,-43.52069461632418
-20.798214283537614,0.49505490478719605,-173.8854545873017
84.3399200992409,0.27789221786513285,-13.37407569607087
-98.64799054174419,0.573027746942595,323.0728142666563
-89.75532617060948,0.7710418785734011,-55.98599529991377
81.45998247579588,0.7737657716712736,-39.106747983327125
-76.78515982834784,0.0848132503273239,-81.52603462541278
142.00228038859532,0.2428918112837194,-138.9034056707656
35.491704189427956,0.34431938004692475,-46.848506478351155
77.49143132327376,0.04396144033773075,21.370111767775267
-15.667838057222713,0.646823719660402,-124.71176246143827
-26.94710669325176,0.17879943949300003,-76.4185636364428
-199.32715829103452,0.1937092497438847,-76.62643874679999
-52.93364068843622,0.2907934582007953,145.5383629345702
-64.19392708270023,0.8585284948000976,-124.86414591838385
-144.03119526625042,0.37280502100793955,-9.087537526019135
-61.10156710287246,0.7246242247185335,75.42646261338805
4.343095680084164,0.8272726899605366,125.41774709668536
227.70930096130874,0.7077385485933498,217.7649666903604
-25.098615366116256,0.4792559599974624,-63.01765859608322
119.17684670205584,0.2776510826902723,-150.4720930694953
-122.9284848675461,0.15794142746845807,20.594313232807895
100.65284782477855,0.5378961467104092,-99.49808215934529
-32.252958634784775,0.4890981094120236,83.75010067433048
-26.071475984089147,0.15177359994015915,-1.1025944055344576
-110.04183991471137,0.90312634118337,57.496433387596426
16.443806143319065,0.8934528824160974,-133.87601692584815
22.682163586066764,0.6700109797828814,-42.489832042159954
87.71523749896998,0.5293385688530938,-67.92915750460342
76.89676190457682,0.564124604932696,-48.06282226379698
9.351699016507165,0.2929460519426931,71.11665934710442
-76.13128810861345,0.3398682173369938,-69.58053130261112
-212.1688369515728,0.4326466096972731,-82.90537163195292
-88.94081164565065,0.9379873692464243,124.77703966823259
-102.08940613267627,0.47230173536982456,-140.56538121742437
-110.46681928003245,0.009081973895307849,-56.0281780147393
-20.753865300643184,0.20375055542912723,-44.302910503153214
-241.88485745228024,0.3218340874973652,198.85176347205328
-23.57311824820649,0.1726644544157495,76.25384713477959
-56.04223506565259,0.6074435561447193,180.97288139011607
-75.72111699278369,0.31906079342095484,-25.239688023322476
-1.5607997906562645,0.9495282400425182,72.73058835390316
42.077141284747164,0.8436358815161549,32.93656955388107
78.07213177030506,0.43019969864996976,16.860655240014317
62.28875205384742,0.3552731260129379,44.20178474587278
-80.42295311494804,0.6669024712788462,38.47867543185728
113.62202159207189,0.6180264610378273,22.273573926707353
98.48952224916624,0.1574471002589728,-105.3511820469871
-102.27236834284736,0.4759193522416866,71.72309714813201
131.03186666459118,0.2066468568032226,-58.8226028867665
85.15527553566437,0.3395208128811894,-72.62370150185022
-19.28843927988874,0.4626901553103019,-18.927865952448048
-83.20986631841241,0.863468736817786,19.968039867121224
49.8944093899176,0.8648619324144955,82.54544570476062
57.39166853519079,0.6168020737033734,66.92993060756123
-62.111944936776055,0.4272775547752087,3.1906124822115607
-121.20183773908776,0.7959756990895178,277.2544753103547
-80.48731346567953,0.5766716064644635,72.8711530054293
15.785463100100003,0.3384294192603041,59.886478133724886
15.007129355059536,0.5891215239712169,-11.601708668711531
22.695477387053778,0.4924365233161079,80.16030620832038
-56.925258566066304,0.13385472737699167,99.77305380056643
-74.45473463095416,0.7616242859148225,-50.14482666138387
-83.08448738155246,0.05225822794051682,-56.924343910747425
-50.222871615541834,0.03205861843280877,95.53996329450051
-9.092071598095439,0.9626997335478295,33.30044385315166
53.5972286807986,0.7286757903478263,-281.15903235926004
99.06169769480323,0.61840324382939,55.85056604890099
132.29818482371945,0.10384157934845395,194.48371484688255
-126.54186615581597,0.374472829476843,-25.11807371654165
-62.186905622686304,0.5351923136412794,16.564697984095243
-113.1927580911118,0.9256617656722554,-61.12946484724206
168.18724262432914,0.4557121187252071,136.7133940270116
-111.13529006151073,0.15708138590536158,169.02537621833415
58.49407543558777,0.14433308810446477,-82.3857858517861
66.08129993449069,0.40498663953872127,112.45901558266253
-87.18932455424621,0.8410163729678608,-56.569834470557836
-214.93237281787478,0.708313811582622,41.61085144319006
-95.76843663260122,0.9025604212807731,167.3476206906365
-20.50882422123874,0.5895294636631703,68.75151561339244
-13.107617797811496,0.5404770803239185,56.3275932052004
95.42060051405272,0.016624694397393447,-156.56563434084288
-32.16864108694992,0.015545265540833908,-129.3484618517954
-84.98132978230308,0.20336193097913746,200.10333534069443
-126.17775186545185,0.1383933698616785,55.55301694418505
-104.62720447923846,0.12851555312708196,139.51061759612585
69.76149521764233,0.7026945803618796,-98.10270419586682
121.43964367684319,0.023425756032707468,-118.46599398878706
-132.34100741121267,0.18217339811399968,-33.9727497092138
56.43935532596183,0.8530056461969081,-97.97348063451938
56.35568779772158,0.06460491253605039,-121.56395642597259
-112.54542904376808,0.489544474166168,-3.8132980028905332
-105.81763455473738,0.2272305762957001,118.43675388241101
42.73082851875026,0.9228073765089732,-237.087897302913
-73.01777651544457,0.6857136181411083,29.30886707578402
-286.7210279403749,0.3176401427607577,-18.50416224539824
-249.12985680403654,0.2805134323565224,11.695376259056403
97.26011874978678,0.4927217286655666,-55.471959555199554
-90.75171159983954,0.25725060084280216,-20.812656126001453
-5.651704506101274,0.6444876505239002,-156.10803320986616
-108.89134723640723,0.7870476976693443,-131.00517773669677
110.85793071032917,0.5401230991848908,-86.71413876181703
41.299493685445164,0.9826737868279674,-162.55446011976323
-1.3408576432356931,0.8859096616558498,69.21987821602868
-118.5661963112973,0.3125946757080882,91.34580957083112
-47.55736134790823,0.2150755440201333,48.3557116438555
-83.83827257241207,0.702114263660237,107.45296903819366
24.26164530151433,0.5575568432942518,-13.128421827690376
-69.33777180019987,0.9368541215601629,-50.26205088173734
82.19755538631986,0.6171526679233363,5.316748724719814
-150.91405037591448,0.8378012829755134,93.26470470766918
149.01462754777626,0.1547285728818646,36.71328365516697
14.31719027132949,0.6293089857215978,-16.902326771502395
70.87572992037879,0.9601897844762183,6.011712152902594
-51.5463794911875,0.08197145134807127,-63.72769281128382
-148.50790879280444,0.41243744942480676,45.58489631527593
60.58386349519157,0.20024182126751344,39.6105309122553
10.249332964433904,0.3541400027602183,118.25653344536484
62.30514757305484,0.9805473923411692,3.9484450594688614
-9.65578102464529,0.8886566319675528,-112.42762298147082
-58.07832153467416,0.4931534353746563,14.709933342585016
92.27823552515298,0.6482172645102804,-15.61570462593739
28.415020260206152,0.3121670152631426,42.37069071050319
65.27729386903472,0.05466291064615103,-1.7275933262895578
111.30593393798394,0.09051088789129258,-52.28947708415962
-85.28520543080703,0.6658472952993306,153.82684659440025
16.440244910335007,0.3452957402059237,-127.21696425881635
136.06514276595945,0.14838610343625414,12.70200847273119
159.22987571714188,0.651347693016503,-117.75549960327865
-46.82887126166821,0.8207867232135547,-22.648233949210084
-25.01522926924539,0.7551932024966339,-100.85441946119388
-22.098147994229446,0.14157857642316196,60.908379114933766
-162.37920787575024,0.036292145640366424,18.260014539744567
-172.9199842452146,0.07470851352400976,-73.77702110392673
-119.00790452732511,0.825404473755707,38.71846710031298
-29.510634030512023,0.22469097967179275,-37.06310345697387
12.797859138944048,0.8584133022958492,-177.76474853441937
-215.36276923029618,0.9820742763648412,-57.632361827441024
33.65352745762995,0.6606726669691084,-265.10547354064073
87.86196954558989,0.9704940427777602,0.019355845038522144
-173.47516761676184,0.3015253420124018,48.782208745382675
73.77638489746128,0.6091798309511282,28.96638711137352
59.75356807818726,0.8318698911997549,43.929969475073655
33.794597064096216,0.06171956317952321,241.85218393743673
-66.84748510563524,0.9838571718644229,-0.41281571241515375
-103.28488477658861,0.24351835535033906,-164.84892585631985
81.02520191592528,0.5845407682095747,154.16957328318966
105.17580236433966,0.817206213089643,31.635709042821496
137.8814349771294,0.009785791855794645,-14.17871137862375
-136.86924469547196,0.26624995047003064,-55.189393800042176
-65.20672937986322,0.7522914892798858,-2.3510783331013103
144.36783162479435,0.2161245025662576,-133.19330759646587
55.34610302125545,0.3264206572685461,-3.185456409979136
-34.942816843319875,0.1533677658732776,-77.16746221070491
153.7076833106244,0.783212702931294,138.45293048535422
32.07310489891053,0.19625116282325272,21.743977830415552
-32.798147543555686,0.6831042215538732,70.34228604804854
169.98223841045012,0.9810519644312702,26.569214581008705
-9.8885558607181,0.8607969110881698,-106.9888621330024
78.68221525931635,0.9109022653045225,138.48734641717635
111.89230101833203,0.08433244961203545,-48.326096673037306
-175.09943203256336,0.6871008833855882,-120.99751925542155
27.95031640139824,0.39189176417909244,-130.0415473577227
95.40648037529805,0.16945546520938426,-3.596058656774237
-107.94943253189177,0.08363342205806978,-121.97299271776878
180.88988517503293,0.42906909900802914,7.058490100675496
-12.37491321428433,0.3703034347608566,-78.9508464854195
111.76458864800236,0.8526836185971163,82.94295376925724
226.55958933199094,0.7323188771919394,-85.98554200215338
-85.86405593284643,0.8932224457628479,-23.353171428539
208.32538891112574,0.906894760647058,-95.20219033882307
42.51608789760244,0.834590200384862,59.48094603380956
-16.752847216929897,0.8770518914427063,216.53534494010728
43.664519124574674,0.9557316592487204,0.4083931748443714
-92.07451664820753,0.5988456929080647,-131.6691607906737
-133.75073827735352,0.9793029594461228,-132.57388444619517
-42.43228976574157,0.5873875033617718,-25.995867159402525
60.69810939572987,0.5366864717167497,94.14013873528744
170.86762452764316,0.15379111990418304,45.28036991754575
-241.24381422252762,0.027645880120007127,-199.9969281445586
54.66479212633659,0.03283285122530877,36.68534336152292
-119.2126169046685,0.313646398272467,39.436682900248584
89.77496453764599,0.9073200352924277,26.63296774489349
-173.9699011839646,0.8012834645418824,-69.71011003297721
22.110178547055867,0.8812432598319793,115.41751285436222
-26.83676978662954,0.7962484364082724,-139.5074280062241
21.898137669496425,0.8557388293015746,53.14795451561678
30.787140492100605,0.8780863154031666,210.6331635660143
252.48918061442086,0.6651577482468092,-190.02884756868227
-76.21187952762617,0.7206888330631773,16.789991764137792
42.9057182285745,0.3855420654811589,-15.818601266669328
-99.2091707253822,0.3749908494451174,1.8323482294715798
-110.16576883695414,0.6154608134014647,-20.361600560566085
152.97950486122792,0.9567908714320694,104.44025224219256
-62.59168865303556,0.4497379998904606,-63.400142344527765
44.94519499433573,0.5355178712278019,-203.07032226902467
-117.59783138399003,0.9854157289397045,-13.689435965921179
111.9136701133384,0.6990532959473262,24.304833931841095
98.8422007447894,0.051672980231560306,48.928188758145986
-11.590050370454444,0.8127426507791418,57.792386199456026
-77.29663304441598,0.9930815029080637,-174.08713990533877
13.171572346992999,0.09542012093603325,-77.85525235801347
-107.45931848148295,0.7562300217291633,240.42009784345123
98.41917775061766,0.7614426409228026,46.7112828212686
-31.164092985599623,0.19545717887616543,74.5733396271003
-139.605055691452,0.43948632013940814,58.773503119304905
-90.87773673960822,0.8522085612429381,18.016739447126724
81.7104778681129,0.9213040772989005,-66.33964463993742
-123.87404073174311,0.973538658945615,-25.785588943712995
-31.270853006435818,0.39104219236805526,-11.715199862894758
154.59398028236996,0.2737224274805883,12.519214517311777
53.96427471057458,0.9504848979310873,-59.116244639077806
19.97073593357026,0.20124054158264792,137.8007737165615
-184.05827881038257,0.15227767946109727,-179.0771917019816
193.36804989976207,0.19561395425615802,-61.306748403246324
-79.39934742800811,0.0336497037815654,-69.0952574851368
23.889146507481396,0.17325104902094246,-68.27545070166077
59.89327515378531,0.19302535411967725,-53.89332069660221
104.82863943224538,0.968740864483595,17.2088470684193
-73.59649422277727,0.6548451950226005,-20.811113820075413
-39.84135016049365,0.44601790163009136,-109.81452095826259
28.02339926535293,0.1544096754054145,-175.2873690894949
36.517107754972635,0.928875975501117,-31.92687892308261
-91.18234031340522,0.7197727317570893,95.54299763375144
-23.912851320035234,0.3507971953354848,-149.00114684424452
11.999444510249866,0.06821395565588628,92.2617465703676
142.43308939275144,0.776729078815262,-191.87190725960306
27.244861898629104,0.0746506038914111,-2.7055652685776184
-3.823133638866706,0.2853641022923675,-26.74726770787572
-32.264636985993135,0.9218655275125686,27.946908581735364
78.14344878265571,0.34531907099402015,31.515496194033897
123.40821212406054,0.19090925461203434,192.81711898595867
68.72654653440073,0.13799575284858667,158.2790650491017
42.347410631992325,0.637786992979358,56.51066409000829
18.59768649149475,0.7988925045570261,-84.98265094735191
82.65392950895456,0.5648395421989075,-105.71177937960104
46.173253983460825,0.27126585535867864,36.42488652148172
-36.010611070634546,0.3006617667287681,-205.8445516232964
21.17206875439733,0.5970731377515565,63.86833608429027
-137.4081554057236,0.710158895005906,-95.2886811405987
-114.23530908099804,0.2728217643856995,36.157778494480084
-6.992118009572927,0.8484676016009253,-126.64329978138194
78.16495748535844,0.784087799617149,122.09348634344299
85.94157125819007,0.2745573702609492,-55.506742942897766
-2.148881479206482,0.02163688620997606,43.41639554029655
-98.84962729708988,0.33595694554391475,-161.2249543181896
155.4204282252139,0.2358415205158103,116.73029827682677
136.8039058979601,0.1524307173178916,-373.13938041602677
-119.73624859392153,0.9584304399095929,-35.77157376841108
50.837084392105815,0.8052060417655306,-7.08224707678611
30.23112203005528,0.8029883993594777,-62.01240844145125
1.5245204672142274,0.14090566170167285,62.367433605094
181.66606513224224,0.43025698160966686,13.258458902825351
124.02677954086722,0.7237664666893593,31.464407250206555
-21.10447609847414,0.28846213336985016,67.12570225945278
-114.90273984504836,0.3794841248356208,-37.80389969860264
-1.3752844531553599,0.4329005255983963,-13.454998870127516
70.78319389822833,0.1622476581246024,-116.34415316392355
-37.73740942528675,0.7531994976034037,48.933847559134
-262.0307109715344,0.41695161441943096,-69.75473047701153
104.15513337689049,0.17021726908755674,-2.274734648338141
81.69421855146622,0.7720965519282554,167.67969750828135
39.903320781864835,0.1988633391188087,-35.15573944692118
34.65570943211674,0.3475737829037935,217.1544008531528
146.30876950437138,0.16768428897053678,83.5010333770619
-12.264608384728128,0.542484656698405,50.53699095994786
56.646407878491004,0.5905188677495005,113.54621159835831
-83.86430327835204,0.8114920269694905,117.57261222346057
88.87038351426224,0.4278993187620921,-116.45379033482897
-90.38359174651139,0.8226548455974975,-134.6647954947002
-159.63354446460656,0.252873250539986,-45.41550206103688
-123.16155964972795,0.8303407006737094,54.58705429946713
92.31660106061187,0.08535296648346247,74.18468080280515
31.662251477542746,0.8149422715999254,-66.35627616658869
-73.52335942474222,0.7740381902557354,-147.23636239792106
17.23873577627574,0.4952368999945027,7.981563218705206
9.902651801412816,0.23883544916067,139.56187592156382
37.04413312039212,0.8888995934880161,-59.478978598841216
-17.787872272245266,0.12055138040371471,127.28021645341873
28.416258527163762,0.06595700281177874,-31.449645555864898
-46.67312074890435,0.7913438504292882,-67.30567071089776
49.65123234396104,0.646002208504919,55.68000373174588
-15.454026442375376,0.9650580351503387,-214.73229936044896
42.28624399126167,0.6251326395013622,-150.0056755121838
-177.3038917828027,0.993347101797817,132.23898227743788
33.69147341520121,0.9371254681576876,138.65420537783558
80.48460968015542,0.2267511228979937,-18.540566389572724
-139.59379390143943,0.012821540123798214,93.10606994286431
81.79069434230458,0.3815210020384313,-10.91392158946512
-83.32928731214224,0.210722945989663,38.008821667040344
-168.42823923069355,0.5497146729065334,127.97255933106865
63.324395612583785,0.6077605748199992,-134.2182073312096
3.889388893858127,0.40405127793687134,15.217079886434327
-170.7832020754754,0.6119021940896787,-53.21520220418897
-129.74058076408969,0.08974672480866352,-155.6573123134615
-27.84791030721006,0.922200059680117,-69.95943455195518
-56.792828405773456,0.6702508300126522,-20.17003283512268
86.14952647463463,0.16864569836058674,153.1997406850958
4.057851161175509,0.7563205648679682,-195.9389809276961
-93.53668608918495,0.7327654984751385,-3.8848793146058704
-37.27819159865997,0.9305675589998327,-46.36082251475924
-63.35025095485618,0.7762358162121691,-15.045540259539115
-51.671372098870414,0.049487333957085156,-46.84319019159603
196.7986946893081,0.5788229779577665,123.25722518355403
87.13277468564989,0.46847088391275027,-52.99207757335394
-57.35684308837708,0.7760070601932578,-17.83811715520431
-95.60449597802123,0.4332949993423829,-129.18855204068382
5.123147245789449,0.14718432075566645,-45.168733258396124
-112.10980815566036,0.43278097876122634,33.22860005358572
174.98046499384415,0.2827645691806058,117.83676703278549
-129.46311328551437,0.8685227328437385,13.25813637604715
-8.337086840869008,0.5131267457987218,-64.76098767914993
-36.134622250022446,0.016025292542140357,-238.65677319359494
150.73237820696042,0.5653043446972589,1.2739037514398204
-48.388473563150015,0.7472612996467306,-55.87391255090787
44.389262062353325,0.9412784718795517,-70.23564649032204
39.498021798176794,0.8885372724005457,168.9842030473001
36.80979805675719,0.7757390047920377,-5.835831890972034
-44.71578755045401,0.9567034777354041,-94.61134482880801
178.80549295023104,0.472412745992286,99.00006143366666
128.57333816361646,0.7404645696061841,38.042997011012936
-83.45435211411262,0.8245972966604744,-5.715424027610641
-103.2277906365282,0.9798869378048686,-132.71296354452613
121.60125158537383,0.021988500275182843,79.45922201478089
15.8443230508091,0.20841839271823248,-16.73598247047963
1.9968065935846764,0.6990768972862572,-132.34991777422874
-50.67537908622868,0.5152274677674135,-108.39546201761611
-167.0035784458479,0.26198475386400977,91.73492975398308
86.84081441163045,0.7649583888748224,13.41113541345728
-59.49025826864837,0.3203001418288943,-56.46175247763831
-18.452241440135385,0.35287139359692576,-171.28929820437867
-56.871270355103356,0.978489804142557,-250.50925748926608
-120.30117976532175,0.21077478943252226,-26.621587113184514
7.549250862495764,0.9336172270247521,106.31820920577675
101.91709807841376,0.694608892099279,-55.02744538601768
-58.68784495531054,0.7399844665830924,-200.61842445886677
-8.051004715446382,0.3493310559870587,-44.0719940446407
6.928658313042215,0.06403893288253726,-52.649457169264345
-80.94768625944518,0.9013872062091153,-59.220755416536285
15.805163867627215,0.5680774324257408,7.908444347182413
-222.23546371893153,0.7284926896228028,105.97559462511845
-271.3338157870914,0.00414090744383766,7.097698714374936
78.23731741235034,0.04522896041886337,11.424372689534422
-104.04553755361063,0.43364371620929765,-53.50833045524739
-236.4318521725966,0.03041473624985125,-9.282180965928562
81.35879891157558,0.016699722833082298,115.64918648635778
-53.68368797131641,0.6062208867324922,97.50622702506244
29.759586232137693,0.5456155019607489,91.50598129284717
-18.575714601056138,0.8091603427871404,194.1879682090042
95.31964766456116,0.20243302623384296,-70.33145615671133
-31.97233169865968,0.07089047679616811,97.0145818939326
-124.89093638816307,0.8019314323131987,3.532496865080137
-277.303132785876,0.7937285693752888,-122.65756622925872
141.8470117031087,0.5113756479768059,-58.649247847053466
35.371338606105276,0.935210220179538,217.066394608725
-25.581527619261685,0.663243896038033,8.571127325221402
-12.243019264014391,0.13641899145585146,-56.91144291937754
141.0830889546474,0.3596296981083551,63.944578559316355
-149.4394187177441,0.26246123230435836,-11.898287579469807
47.97466994539298,0.12951460131583958,-96.40017467318927
210.0845241210644,0.7323633878905156,-63.09196404315327
-46.20123193713738,0.058311623925267564,-25.297459470659415
-43.99015599882505,0.7677519030387165,-13.54428038336028
-0.40157769493289985,0.05702334164999434,-37.48369864044672
-57.68952975524383,0.7874335678591815,-7.698490738942939
97.38650026028138,0.12689809807818953,-100.90264981532593
250.192814096089,0.12453581721026341,175.88981015087916
17.866215524796655,0.606169073545154,-163.09139727718656
174.3932593527635,0.5758102846122753,-94.49797845547197
20.1346693214903,0.3657507018337941,-76.57273186655618
-182.50321930577445,0.22835865340067418,-41.56762311670845
-16.607640101040865,0.3704113971787766,-15.778614298520116
63.389729852793344,0.634085194086199,217.2848307496674
-158.8103710676859,0.7691409126625984,36.64273073231699
54.29478153930303,0.10201505656088439,79.61293550510618
71.61402861240808,0.8849878713915493,35.81725404569227
-69.73520224803386,0.0034655389004975,84.15609488485269
-49.96682077314845,0.8356273794506907,3.9129048343904334
0.4959579315188241,0.007601354130762239,-183.11789242362636
55.85776296173618,0.06024827968012558,24.13343543785733
26.0506961134435,0.5254612797891984,136.41528075762358
91.8999654893572,0.6671031295635955,120.44973365310902
-141.52239163269306,0.5820897928989076,15.80825907111037
-37.528687260919746,0.44009332760264763,-108.56504572559224
-43.68362287881748,0.39809052893897734,-114.1492265160917
-23.020972757832478,0.31875024061254564,65.34436627120004
78.42771849462868,0.45158881025483477,236.32250830416214
-10.532857088057554,0.6470618934502098,174.44329226500125
-32.37629997343912,0.057795205418868734,91.65796301488417
-107.46268025189316,0.20910321675486543,5.249103268471625
103.16612822501293,0.5858763570387868,-64.4168440794497
144.5044834586309,0.5377073625726555,13.910932053852859
-26.301284398088427,0.028882763180368975,94.95535353592068
127.9934967857647,0.4566282284177905,-16.093140252261534
32.67627396222367,0.3397837895556255,-135.66280129172597
-132.2401513679961,0.5888161532904624,-99.41885285512764
-2.6711102134729963,0.16815719080851854,254.76847846417203
1.700111861953725,0.8963423997649898,109.22096329125878
53.99172403537984,0.3984140883104941,-184.50239506198704
-53.85459342666664,0.7330852899114522,76.09643791150252
-38.645329394873976,0.4006425410511044,174.41469850528384
91.39149645189802,0.9295926922709731,-53.5363344221644
96.47054473667274,0.7688868459369581,-53.12572873110878
81.55566203559141,0.45120942501626293,12.877378344874565
-6.741313239238693,0.6557442159938741,-132.20519532642865
-133.0294954807872,0.5356652573600933,112.77729261981517
45.449296544575155,0.7140684289252462,-48.18729425989135
-40.72336204573452,0.6919713083435715,-133.13388969480764
106.7312677616395,0.835831228639401,-16.266177326784877
-16.45856988569222,0.03225601297459013,44.156052080750555
5.582767024599588,0.8114083081082695,-78.60133949498179
58.827911314172766,0.40815343672890936,-30.370699974571718
57.62461146394825,0.6117320475097064,46.64116987963134
-142.34999750447966,0.43871919785819136,-154.83885545717823
-60.587672569212735,0.7850883591807439,-116.35121639449551
57.27378144331017,0.8160320529829286,166.58084106709836
37.895113530488274,0.46362697967466016,62.96596073093645
47.17473723851857,0.31557812182504086,-23.71573624086611
61.93575706165444,0.9045419224248368,-52.154073822294144
-47.30452431229429,0.6609430073939013,48.366940236978294
-75.73912407193995,0.6478773475838512,85.54202589890019
-4.26528254166358,0.5589244791922672,48.29682280393999
-41.435322373394676,0.7595117062578484,-3.1017577406294174
-257.2586396109209,0.06084646999653265,-46.57954998651507
57.98325589159159,0.45299927519465055,-62.84902436102464
-29.369268351392787,0.1774559388383532,226.93797292268516
-103.62419744572473,0.6481475340053812,98.17504117187671
-51.03640133277971,0.34094714859715347,53.65402803741184
-64.73836487909436,0.4836763499310289,-203.03611668783853
-43.63293097416226,0.9825975553107963,131.4354424535135
-59.099311043226145,0.6503930259865014,-32.90599206379832
-99.94304238218736,0.7955526941914403,-70.56950500243492
-34.54064063215778,0.6283406635011705,-14.273817199842142
93.74885785218528,0.8542132315445613,24.30483505371956
29.122798990713644,0.9729591693504849,53.54712605037165
88.6572975115504,0.8367102711626311,121.51310307876237
-60.49322777153352,0.14344373360334084,-202.674779025384
-29.783272010521987,0.37148568020248074,-148.1542596932946
224.95832995507902,0.6235104808592744,-13.070666230827285
10.037241653306104,0.5662356892456606,10.859846681956768
-106.9762218963205,0.3409589941203639,-82.09618617145537
-51.66243669927323,0.2420851305342654,52.08818203827741
46.83993910664036,0.125852011462796,-94.28388831360415
66.63156231021472,0.2631059641567761,214.8406894141941
20.99718445810335,0.8216936809385974,42.10580192769779
76.64652527775242,0.365822573694892,10.606319088052834
7.186498229850076,0.7635687275576928,-42.489386969146615
-162.36685475976117,0.325141051235151,-138.57503916968054
-66.49948576035531,0.5405837911867964,20.180208716662797
19.066769659684635,0.6782907575047619,129.27226530836705
21.686343392323526,0.6149070700433927,-57.47831174965423
-115.30956347508557,0.9158212987685863,35.860335748542674
21.89844611075933,0.02270968150089303,59.33616337816279
-25.3431353565303,0.409238026061452,114.78756649492823
-21.77037335643486,0.5729635027075374,26.653399038379572
-47.477072302903366,0.7793677652827087,-105.84871171044936
-27.387424835549595,0.8483153816218157,-65.15470131258421
73.36084271599181,0.8778104141359949,-137.59116898671527
-49.059159540140485,0.43098520350384373,-80.20350113485324
35.66429149542415,0.7703116382119892,99.61037990353073
0.36668597006248743,0.6990870196727389,30.95475503679771
47.877279345291605,0.0472536519258584,79.44619249986611
56.6710669087751,0.16919605094706502,45.20696760942067
-96.53752349363938,0.125611135987437,16.911795392172312
-159.13133827924057,0.3055636412863727,0.788864337538214
44.75042294699884,0.46922820981680446,29.412116172432896
66.06355467799513,0.0956973493708223,-141.50621969997198
101.16578389030234,0.3505146638568529,181.80432751462132
-41.16510506796292,0.5407476343419417,-156.76065538970929
48.13012857042088,0.8677685349878362,21.770817544383075
-142.65294278112071,0.8190316237140471,-94.19856488632477
95.09599231828268,0.5627759976034508,49.89222881005423
252.58417103627272,0.16583843324474745,49.95796606927331
-10.254878743553075,0.24168536550086706,-0.8812914564597709
-99.7910368302659,0.536995679616339,42.22859417036506
-35.433840354109186,0.06773170584119448,-154.08656993343638
-160.63427508105485,0.036866463694884,158.1905877193943
253.22202945632105,0.6991161842791245,-185.00111355311216
8.52982194676963,0.4456349460578758,-91.17675872235048
-70.5165105091522,0.45862400932851743,-30.854464394185438
90.62747544789148,0.4290983879348004,-152.0621067709303
86.5689225023154,0.3928294176654312,12.16037467428098
-23.39285812369593,0.9192903664324253,-7.608234048576741
-189.493559566641,0.9351792113858598,-21.115645451849588
-48.32708519715016,0.7790048890857738,34.23361574687348
-72.85861336990268,0.08063181804700537,-20.266599098153243
-20.713121662079452,0.13396148170386946,107.12112297355894
6.154298777054503,0.9047250441001139,-108.76729554194048
11.618605085005383,0.4008170587561215,-75.22105173192884
42.009247034828434,0.6982227803641878,-24.686256862563084
-83.97100780003622,0.37289532202853104,-49.15078103179526
31.329853430931593,0.3827412306275999,13.941872999137516
-42.89607564584805,0.9763863800495364,48.24591710672721
-13.240289807798886,0.953966745216523,-6.422832105802765
35.22433119947733,0.7072745539730911,151.23706763810793
-51.788184773527725,0.8495690503818069,125.63734820534363
58.22981053232093,0.11713449309986435,-125.98605266737522
15.132094644998137,0.7224633896004123,-50.98241728248243
100.5560487112879,0.183436610366688,46.3741702691384
-61.24353666578938,0.35108195171463163,83.07051250848251
88.70591006942058,0.26525060373677356,-60.53556856599238
-11.487754200813733,0.8245871149990832,76.05392781611988
32.136510889926996,0.6359303138034585,33.52544511613486
150.44825477182627,0.24688342374545957,64.41052455290398
-125.29221293550088,0.8327042469464673,53.231964996441974
-47.04258793862305,0.2685196628207953,118.21330253899411
94.33856712344047,0.17145723195082185,-41.95392226806584
-23.89411675210105,0.7856291404673714,-142.9485808718114
-63.62325526511856,0.3873008792205762,-12.313942557024175
-8.694885634526377,0.8976163325470574,-217.3828283587256
13.376354657977565,0.13246657347360302,-8.153700088712498
23.030336833598184,0.7781115676944438,122.06638477392917
4.326182706247229,0.7004389965584651,88.65682801724837
105.19754572429589,0.19263839458578247,67.29470564008312
76.43135103004109,0.051112865436532484,-22.999046802885744
65.88402251062027,0.7779128347227675,19.648543188668103
-165.95548048679166,0.327686811657082,-120.08871537183965
72.48361774700233,0.3403629876042633,123.69663069192815
-28.430367891933926,0.5756147668258272,-142.55597123177816
158.29092751146808,0.5353114237217145,-35.56262985310354
84.78794811390712,0.1513471613404027,-112.32288759063238
5.246029581227098,0.2524396480632817,-173.8640449768712
63.45107939140452,0.14585143585819293,50.03721450146224
-19.11626512091711,0.5167317460549111,47.61722372661236
-77.813113057845,0.7617415777331633,-59.3658859400727
-196.08244109641257,0.36844524213566376,-20.932255071239382
15.809196374417755,0.19776691183728645,-20.16051307348245
-44.65843458246442,0.4598810044854016,-160.58180049540292
-9.264203203768439,0.8243618881976609,-101.30110473850922
4.303616610479838,0.8702950542231508,-44.685716424521516
142.42391573417217,0.6402123662209922,-40.7871217869395
-110.43410817762597,0.45123139896234554,43.25912241592235
-37.2712871254805,0.8504902352686314,-75.66305724731373
80.68333853965551,0.6278969073658471,-51.469171714610255
-123.34292194459518,0.6196645600014143,-67.67997892070056
-124.08599350884091,0.29803836957401664,70.76957098867693
-67.1508489862736,0.6611377991137641,-1.1940468698992452
124.23272061198907,0.4329683613727888,-12.243709165672326
168.3946767834316,0.1833167038651461,49.033736020323
-1.6100601998598398,0.056398995848509714,-18.524042381483017
30.55905466811127,0.3999711655498773,-50.4958183626384
-65.33409118699123,0.4637019538981517,-256.1540392394353
143.68664121233567,0.2657581710240866,170.01562950103474
-85.76405483339292,0.9492030358760467,-150.21523850050446
-150.8206439232136,0.28477571606803254,-24.746937564010913
80.0876636838324,0.0038212417216185735,-117.30629788602901
-80.31722265606896,0.26696532903455383,-35.43626599049817
112.07947622118486,0.7848423639192038,85.32434875650563
23.69656031545471,0.8478690319615704,-101.18159722000071
111.65970640942875,0.10359200627982479,35.04965573468534
15.766205517149565,0.5441762119480492,-65.18735863156657
69.28072218370556,0.7055179159994512,124.901553687194
40.30553956257617,0.6773430421664317,1.3502666300015
21.282642111298912,0.19131811089617357,74.09073534872132
13.089653304812817,0.627627244756501,-9.375553769266395
47.9029338877638,0.38047074159083627,-8.285354764194834
131.80351448831595,0.6031253240922468,107.7571865779693
14.390470208708017,0.6668161044358406,-74.070394995775
-83.66372722093303,0.4540621554766341,-37.65736674032047
-41.42935096898282,0.22607216294541355,164.6503823181242
57.54132418607916,0.1987591992733141,67.9491137946621
49.694908593466394,0.9851365422850676,39.46948463701249
-211.55650392096436,0.05000974545838621,-170.32883669576412
118.47629770482683,0.2691835238617508,-92.47032818206067
141.33481401018005,0.7127441706221594,-47.62009660943738
-87.16201165915564,0.030997428953414286,-211.68954523969074
-24.551951853284514,0.6327926098429562,-125.44888443287886
60.773461373903444,0.5916513152734753,71.82382964460979
155.46967068284786,0.4496480274784711,-45.88864878527498
-35.058644522962155,0.8462183606404842,44.89615539008264
12.670016409598633,0.16355537430500855,-10.669557608300956
-94.05505756235615,0.05899360733828973,100.30080163313062
80.59164003244474,0.295707770270098,36.98335923399869
-80.59443126926429,0.23761175372813992,152.453340572727
27.468402831051026,0.8703386820724982,128.43497562246168
-41.84421356843069,0.5872532119154331,-64.56115638143085
-72.06281779566606,0.22449344910150437,101.76403861233263
55.58978374233946,0.9009049063821726,58.31745191974738
-25.080654123770763,0.6828947073837188,-157.68245493571064
-224.08445995582227,0.7512904105546757,80.42117913893935
-56.2928263569041,0.5993697711590659,-86.01673361903592
21.269591782802763,0.6633465988118223,-26.308060130491313
53.37683985720537,0.02785099088698262,55.407089795587126
65.45845524873938,0.2898510175651652,-6.298178888943812
-142.44374629257416,0.29874095020873215,-49.2651640186047
-5.154207085190219,0.25195795577497393,207.6904145986237
-208.43731953410955,0.9419860953269527,228.38925414687444
-63.40960198154397,0.31812184441631886,27.080242941101833
61.41267156052196,0.2360037556210891,146.65575964776863
-123.85913070788412,0.8488305502708584,-24.15603401360422
44.315468658070955,0.1125555098635671,56.785120490219334
-135.8272706482665,0.332096538731225,73.01907369632525
-60.17493579922972,0.2555891079513365,124.05483737704743
11.512702529375703,0.20599256823306877,5.377168732414213
97.73400955219398,0.02816018910192042,116.86879724788588
-155.82735363442313,0.49275177890629085,-121.7783288214978
-43.13634785237076,0.8257207746683949,-188.0943377531778
-15.66702515324818,0.30873945331325536,-17.41790191712502
-3.5012279602082836,0.2174143791943246,44.54334979273369
-38.00504329457416,0.02312873138178817,40.3361666899542
-106.85989124480687,0.3262444057283207,-129.91256692535063
-78.4167235519493,0.4920733351817985,80.8205201954749
-125.99194353772671,0.20263210920068886,-56.49367188004516
-121.86462653757886,0.5588291057342561,62.05936735419216
99.71021300827945,0.9009140027079039,66.80301927804135
118.59111740266574,0.2589972252642414,-129.92523813487858
-62.090670797571654,0.4875695074811758,-34.881278857445004
-49.953729518835324,0.15186761456061504,24.839259776476634
45.0284958611996,0.198423434662098,70.51963080829451
-23.515167888873428,0.9029288541329337,5.183652917428344
-135.39757458896986,0.987495356513776,431.3956959305603
164.42647795640124,0.5174041059584594,-97.61709317553628
158.7901454666964,0.5063027859401916,94.13565102830668
-4.483000472849748,0.5003147732883244,-25.38633391591338
-19.52077680282766,0.4803467279254713,-176.44873444267833
79.76384413066727,0.7442651957810112,40.29377969349161
68.19674628330644,0.4038964750679537,57.08421357609368
-1.3877186894185212,0.2083477984158587,103.38263307098626
-105.38376375506226,0.40192148872646905,-63.14508272124658
-198.73363317467835,0.08695239348823591,-17.289768662594422
-44.420294597182846,0.9016669459427271,177.42293757502924
-200.06243051097195,0.390495346396861,24.433114432336307
120.63185269493044,0.39767277573366955,35.69460237484881
38.31921712731649,0.09133719317022171,110.36250393092925
-155.97779511190228,0.7953001965519073,-98.64774223079782
-260.6532045350227,0.39785076078773374,-80.2750454946579
-92.35556634705495,0.33573468107459603,-128.40665137686162
-66.4128317938063,0.05621045287845927,-100.3503833163887
1.7265582756712305,0.4004062531043293,-29.95820271593595
-18.07754149899399,0.973225742851051,-65.21629625155441
-99.03404554198794,0.4766533237538172,-69.92220853389604
-123.07482731397839,0.5991633826719766,-141.27817353117814
116.30824726440005,0.2620532027990822,-25.7023692446185
71.59970424448736,0.8005167141662157,61.31712521924065
-42.73633252985887,0.07886297580849866,-51.55760847837533
93.68934297697066,0.15159358515287646,-22.060389740529114
94.85956368005802,0.3138232464400609,55.942449740138414
-190.76432283633991,0.5010729223524082,45.565957682130346
46.144926938646705,0.5325513605373303,-99.12632293775468
120.22733345425183,0.8481647109621453,-79.11379868009237
56.287010274441016,0.0984952348297432,-120.89955178205953
-129.08392035353492,0.3604959874216086,-161.00344686361606
123.35194104308391,0.4254672219024461,-69.80008408343349
147.2486637582059,0.8615515970671972,-203.84242129619938
88.4726099191648,0.8407199592082988,-64.70462919771808
-41.398402430299946,0.3973551139839596,101.78232098718179
-122.63525168367053,0.09575074476629764,-62.56525015037412
0.9235993430947551,0.3539065258700509,50.908359914074296
82.95044044676528,0.8129310429079412,-177.4942972145371
-90.12156101419754,0.7668778364132777,5.347998935370562
-75.44880750899931,0.7522915381257099,-65.08436724651054
-1.9040279270460072,0.9495357387495145,221.58800308243997
-145.42807321230566,0.23166081888571488,-118.80451993025851
-111.5811631044602,0.004046183495150846,89.37051097155404
-148.73910232897217,0.3084099134235031,-68.19772864280901
21.084436999031247,0.7009691348539904,123.20372676014604
-106.84961786485098,0.22539524913422215,-37.43763105816343
117.13417772251933,0.6832776395442117,29.86247514864569
121.51204011011336,0.19819134599135801,42.25422191393854
136.83837438357708,0.11170187671208853,162.9275495701367
45.12919265202923,0.6218084247049178,33.48701518555263
275.91497289120156,0.014526834723151527,39.990334100204606
55.15647083319508,0.6701659352492255,27.667360764420067
-57.24058272624618,0.678827405724578,165.02748201149703
11.32669359547696,0.08676043943891065,89.71896369062262
121.51875856668693,0.17749599069686595,-30.92429967652974
-16.540553611139536,0.17226849049963877,33.210108923597694
205.5758255571711,0.6863197290980678,123.85181829649213
-201.7789042468246,0.3939830549719403,-168.23500431233157
-83.10264240888682,0.8837627511611444,-109.0413890971549
51.08096625893527,0.8519710315616402,-72.00870495024448
50.34784099388615,0.7307732239820035,20.893887436762398
59.40417286998119,0.5050059151136922,-78.1595480336014
-17.255505565888267,0.7626160731845816,109.15081671993856
-52.11217823726061,0.9926452538929701,-57.76633988139112
-38.48397378733221,0.8086767439982168,-130.01779424760718
88.04410161786885,0.347380546988598,-80.9613607033706
-197.87818309756037,0.6254339954486059,-13.901591728614685
21.487308516698274,0.9417930605099079,-162.37462047665375
-90.13264395926682,0.5983876662818339,-8.29935630941185
-20.133620474137235,0.5203830438170882,-20.410159356435
23.10537779586735,0.37431725045925834,-118.3796129205444
-71.81959951111394,0.003451705130608329,-90.23430274158555
-43.39259257264972,0.38048629944005863,198.2108113154841
-59.33383288688747,0.6840816853934706,-18.270015165086125
67.66389247450827,0.46305082322322944,-59.3733950610522
12.374350270730739,0.5927391664790344,30.95930890820373
81.60425281011337,0.6002425176193324,-75.4480441294178
-204.24832130871303,0.5333928007905867,-160.60115890257188
96.88968077950413,0.6995092454283157,144.58757333844275
72.8352061752663,0.7957509187159412,-60.13213897409392
48.521374291407405,0.24249608964922376,-14.058626808038271
-150.2158165086063,0.04516640967772956,1.8517957957340803
10.593548706071745,0.437424174692859,99.45163548888169
209.78480463246615,0.013096927214948817,66.90598078865693
68.60859981223122,0.18753357440252705,167.47369448476212
26.37462856152074,0.41291732057654384,81.47596342232673
33.65530425651399,0.9732752806625383,25.36558760510374
-68.59796601387677,0.7332804036672766,20.947164979284675
-110.12149211872342,0.8200141512475901,-79.55236383448965
66.2689721278297,0.671965513738848,-104.77172962516765
46.23795367560239,0.8613397227786465,50.06183205560758
-16.37601517126296,0.002747561687753919,-183.68390233315313
-51.48638246207455,0.918828784734772,41.54483250035456
19.35175840998581,0.39788234739115735,-26.243977733736067
67.49774124218858,0.06533483761209857,-46.76013383335961
-136.4672782691501,0.037259849225660835,-38.15460992037122
209.49735833473432,0.39597389356278145,-184.3702072966002
-200.05886079528915,0.5176403936915391,37.44673157383533
-12.646399932418323,0.8096492691845921,100.60534250102494
73.67041562482713,0.2138073207283967,-98.48177625265774
41.873169498117896,0.8329984321883861,-124.12806353855575
-75.5823344931697,0.20221320147482025,-200.17525548600395
-18.650855598923826,0.70378262761771,-33.03562503062605
-52.35589247628365,0.6534296235972548,-204.9857609954258
-71.89970909256708,0.3126196646185999,92.7754913370555
22.944726638454803,0.9129209897799341,-38.534873834873345
6.238153823041407,0.23786365364291495,-135.32009763859037
3.1193117192221473,0.3550559942258362,-154.5600043335486
-59.823839293203726,0.1367644702745764,-93.41684457449871
-42.56818222828782,0.5034812768992374,52.74350786227683
187.18788292491817,0.17818913397498348,36.254272282161345
3.4552728458575466,0.32348989329752287,110.83530578429092
-103.42321821554654,0.6067444377383426,71.84317287273505
-73.50449945649466,0.3036097705774643,33.17904202097519
5.1605608109984535,0.02238612160408282,80.09971321335414
-17.142557087508813,0.09457610113124781,-17.430781514957026
-140.60366748123963,0.9468852142214229,-4.694446912413154
205.15231917440565,0.2949118317786541,-109.48809853735571
15.11200857049714,0.05047397869362347,-81.94079511579055
-43.41602334150513,0.3160036125782464,-67.21804513418462
-81.19787262686526,0.0037123119914831415,130.05652976858062
-83.18191515715118,0.37117923238075334,-34.88642839990464
27.326048864355663,0.2612198580451055,30.701657504045045
36.457949527011344,0.7636559799051541,-18.064542167472144
-13.931268370227906,0.3969257386502465,-0.40638044781424715
-94.37870240796751,0.9418678452001994,-102.77194870745943
28.878743032350656,0.3622185693457478,-54.88382344674826
70.8544633973124,0.9775196411395255,-91.55988162998625
-32.08099343736486,0.5077190770126181,37.85042054218961
36.879477036228025,0.23209922178643427,35.162968211940395
-63.17143960115208,0.04008479009356569,-217.3869392374544
-93.94062754854448,0.027251856104679284,178.68419770511346
-5.902527580051626,0.6689777892037422,-17.905804493364588
-167.8667711920204,0.6808144215130199,81.555524186077
12.916825104947952,0.8058648729833,-62.59149628540058
83.73384888790248,0.5449255354863691,-94.48139609715983
19.698554268203,0.851111763976891,-163.1625700562519
-133.78615413403386,0.5158041218038809,138.29768022717525
-50.451043583967724,0.55475587169144,94.68419671809684
30.518948343242187,0.5819045004491233,-223.16821489871154
11.378441943579567,0.13408229797408733,-224.5616012187483
-107.48058762547399,0.7725386770397686,-228.11803714370205
186.08031115792258,0.5289631032875259,-93.44107526512732
-13.333319542689326,0.33156746155445616,-50.19850715210369
32.26538588460116,0.44603369199730425,-8.626571993449653
-9.201415262050162,0.8575390236843944,68.42660721917576
-138.54562141232756,0.4498539833780013,-129.27161674611835
53.39024309615692,0.7368165629151903,66.66326672367174
-52.3860070878965,0.8562017156845673,-2.1644623523666593
173.74137161741308,0.4930337566513534,-27.15266922596008
-152.4230731438939,0.8960446437961198,28.415602145790352
-21.824695166974905,0.6549886938292716,-112.59105072400163
-41.929176009510385,0.373776709279805,78.13867032217745
50.553030971001355,0.9052886842812216,66.55422419768678
42.41797095995155,0.8876189174557072,-235.44481644509978
121.20221703734906,0.35004141028283176,160.80795251868506
96.5104576034955,0.9407763935560746,-90.80092154302575
78.44375669994473,0.4591356750693728,31.47198235796063
-159.31649375080914,0.5521829531734114,63.261894826035835
108.05744987504524,0.5558150033924166,-121.73429448015773
-9.688716624136138,0.9555461944411929,-48.05565655022781
36.55628239595062,0.9762908889544394,-15.242237902415248
84.64206971448716,0.7074567100653336,7.506921784270229
50.804667536296,0.5904137676094842,186.48315215024493
-2.09045277883601,0.4379555358753512,15.947956694749987
25.21489128884651,0.7201840270287853,-233.53839904737313
-10.390412661117557,0.29350859166555776,200.65419680978218
25.223091943955655,0.3456210576256201,-11.53695321195778
19.37929870863423,0.892698351373449,153.20841427293624
124.06402039731856,0.2033036052900935,23.96008029801323
40.34542388830326,0.9419426618724162,19.984635160040163
40.7412717760011,0.9069185380924768,19.070548270509022
11.947481813005831,0.3116679959012385,22.140799419136524
143.5325049762745,0.20007663343474935,55.896406734470716
45.4001727208897,0.7460572829359776,-2.1406725663438886
-38.69512250997591,0.520500173308726,-55.94379641472064
-56.351375627382104,0.8985283035315096,19.71688757753831
-21.65991687769833,0.39347913986599903,16.52749910922298
-40.92851967455348,0.9258435073990122,261.0060081120948
175.33051019920936,0.6003574041376335,-49.678199756704004
47.16161704597296,0.40045639624199103,75.109782378332
-48.34754244769488,0.38612626805272965,26.618934520025206
-83.2490034403755,0.2949036831647359,12.694919592957818
-94.4218079734946,0.802926317835461,-90.6169792533016
-182.28519997506888,0.7057312262929262,-40.478037488212436
78.73359765222921,0.5575941556089316,-0.047679792974309666
-15.728587712129286,0.7917760443580848,102.32427403735691
-229.73463923869394,0.9200475969242339,75.34010389673624
4.455763983937017,0.17476705272528048,139.2005274786538
25.00960256158456,0.12893039248479943,-79.18316633737791
113.83867312419792,0.4764151696224733,-71.6194243324415
