-1.4290703559631335,19.9854570125894,44.16819956607569
5.15696804255449,12.470147737581899,90.0133390889435
-1.5993586751269822,7.455189105538103,190.30951706658053
-17.00463634525582,-27.18484454221272,5.270435881951174
-19.87268958295909,-10.3816258738443,129.85517436258874
-25.27485815622498,-0.40063821085314916,10.672822832523687
-26.76801231388647,17.633200217289623,117.88400753282203
18.09802324636251,5.270220315359003,55.07952557696208
-0.08298408971496346,-5.530380591935543,142.5500541712458
-8.674617212918657,20.590560359858678,156.35199084612478
-4.66204263549966,-13.25326431865019,89.28017832504318
12.752151275788925,-21.36493138971842,148.19694438505059
17.377953068477694,-33.32925983511364,168.65728204632268
-4.409512885880447,-14.8577245554783,189.62708644922216
-5.436165034756466,-15.106843776012452,104.78341298449413
-34.792903826002096,18.3713005769229,141.39179622647202
18.360594495379647,-22.74683678964246,198.58942630686386
20.25671588861656,-34.47623294743053,122.40300098708975
24.398309763881148,3.632404423681818,54.65660775347474
14.356216679270025,7.967985402152184,88.15918573050807
30.354052189144536,14.024314371583202,108.30670134170288
-20.381406134625408,4.040846433920616,171.5807199186619
28.98306196189514,2.809656927999636,177.20316211147923
10.529478763681986,35.12365589337291,28.3763032604639
0.7820747948095729,-5.452729106050584,142.57716690788428
-2.691068147729821,34.65591452570794,101.99820541598052
30.08928064263312,-23.525617050242218,187.01371720541826
2.977624996806991,8.995385236448383,56.33170458755057
-6.085634045182658,5.2519939606799815,184.26731927728767
-5.885645415160887,18.49759866288027,88.01696524714787
-6.2563697426760765,-9.752117269789055,103.96924958380109
-0.755102022108759,0.3189224991831916,169.4309793400023
-2.446341136016545,-8.06145153856931,64.14024842940182
-5.040668606275808,-11.470004092782982,96.7974323644893
12.859675167879004,-0.4121834899772348,16.687494451044984
-0.13310539791110426,-4.475449981692255,140.59507687334306
-8.536841318666545,-20.673830475558514,4.200743869392665
4.418659528042087,-4.589540969427958,92.15000623146724
-4.6166027281066935,-8.23696409514448,19.314550322848056
-15.34642528177072,20.54598847095656,32.055774964199
-9.239164203579033,0.6763582644920566,132.54782397158854
-11.680716646872161,31.848674861165602,177.73408244008564
15.51433258914322,20.341723229344755,124.31472081245028
-2.722111776628002,-36.21979370538489,138.32254472388848
-6.604650942168471,-25.936458991402926,191.1659733923388
5.82822483994038,21.827494914769307,36.98243906694692
5.5508720519377714,-23.366546336641548,23.951535730971774
15.678906514094113,-36.104727347394615,23.647055041867503
-21.172666308601528,5.544130672874027,21.700896734107
-16.308498147639963,-9.624989995660838,143.6618415889194
-0.04286921006843835,-21.01841294992462,36.77864604886454
-7.16593416861732,32.78332289522635,174.8182215637451
-21.399209773442966,-21.04702549036626,12.43884049725217
3.2486185703235106,-0.8807270672288783,53.21601402642426
-3.594051527256571,-4.770657587039806,51.82466882295667
-5.036751120285844,-8.313730064595566,89.48619853664664
24.929837161088095,23.40900621805237,177.74301382746117
-31.699883788153596,-8.495084278868186,55.59634786155001
32.216660500269235,18.831574146390214,11.027763851310436
7.658170845484154,-2.112530830883123,43.50214482051307
-35.203299795760174,-6.492569902909582,180.6019516756228
37.14141459459328,-9.949121943313585,126.15744979637964
30.44929127361689,-14.341292925782255,50.564586350457304
26.123374333741154,-20.625998125278404,181.4702264627053
0.6837326436515588,-37.23458496121564,28.03714434245046
-14.518352593715475,24.54188241214023,67.10963663986087
-18.072524919122156,-28.444157559835734,114.92813686647982
27.643515038391158,7.841922030461744,5.625975535795558
7.007636716770841,-0.49554130997715773,178.59085428301614
8.449319817136566,-3.8634226941243286,10.353549474815104
-5.0954630020215745,5.416532921197536,156.76638659300903
-15.532108674962139,-18.57959017360285,58.76129058732076
6.404451913701829,-0.08364276615009199,176.8345387723048
37.5392569406164,-6.817333687923354,110.33552630372026
11.157042388443742,-24.586416562310767,139.21072252503035
23.505919275867083,3.709796009302336,43.67731040456309
-36.6594393229679,-0.6153804465147045,182.6494084541306
-2.9859766258994287,-23.19343441056746,170.0572310877468
15.732260754057755,26.02181989689887,132.9623855404502
2.1614264640144456,-2.007426451707898,28.468101846038852
16.373284355809773,-5.54314049600851,182.73676804091338
4.8053926882510885,-5.793744568249307,89.82894132350008
19.052892511375806,-17.743294399794234,90.9802069984999
-6.99538060009039,-6.323029141453746,141.15344771183618
15.137871129600523,26.791554989806865,34.43479246950503
6.612208203399743,16.936429139285636,20.91149018236309
-9.115245910615569,-3.107261270413323,31.238722329651125
17.947990245569677,-24.889610291968797,150.62386653790873
33.27846669099882,-17.627931852810153,128.83823844908207
-3.0887596499454375,36.49138943230816,142.4054882509836
2.679043018264204,17.898494971208468,75.82290116645558
-3.5474648010434238,-9.474322464080895,199.56416473587598
-4.508560269180756,-39.62823892805612,150.26556226095366
-1.9878161238625538,4.379435005238201,38.80934233586022
6.3657542448703435,38.71771641441971,152.55203373002345
-12.026328024393667,29.510594499688583,129.9419318680476
-23.840898510585234,-12.474428874052698,150.8501757870295
-31.51960466833373,-0.36270592469763796,100.69875054248519
-2.1422423623323565,-2.4055180118021258,155.1972019732203
6.3666579950920426,0.32290503301501877,68.31504254264192
20.119479356925357,-21.49860720510004,102.36582592035661
-11.919677535720007,6.644539437106268,48.12138454830921
33.934809274591984,-4.906267963165852,13.841295535696062
-0.5837906435430766,5.676245552170856,170.98070591755516
5.0735642246815065,-8.53586608539703,137.42158781440543
-25.77140568169754,0.9206733536777185,56.96963173257363
-3.273566317778587,-37.59080609830421,12.43640154143777
-7.9003495242679564,10.766533211644989,30.81502365587827
-4.22608005125777,-14.866527692899586,148.50282012643248
-6.371117364154682,-3.358253483054269,37.94113158170389
6.743677732942139,-4.119027947698181,69.44372508934904
-18.41503671932767,23.80363326451677,192.94307441495042
-32.01992740062413,3.3777078403153746,112.53067225136422
-15.197728783445363,-28.74138633231274,158.5068965000096
-0.3465739160293589,8.480820205887648,150.70473640960788
37.39128163666672,7.593017905456601,189.89488369946562
-23.510815524517856,-0.050633998752472445,172.84534114893881
2.8258964003598215,-2.9210819629391804,0.15104629214359733
-31.184659127842647,-13.679184143620645,83.92300963951446
7.083944242097332,-27.802021074784385,187.95674300143918
18.714216690558732,25.114450705696832,138.99531640284638
-13.067989239936248,-11.334415719110858,54.49173546101811
-7.522547207774549,28.06545964967653,67.36057640286128
-0.9380518318779819,-14.121128908762984,21.06445772891654
-4.37776141027947,-11.617849526523262,133.98334914372887
-7.5678947023211665,24.423497486683324,66.1084703148075
-17.447886098708764,18.611471493522764,159.6207930088418
-8.966408197142865,22.1624618923006,199.08526465481302
12.965088276542813,-4.423341067352737,110.5288756151394
-3.9902824625111535,-22.554528646031102,136.6785174578886
-0.34119656989362335,3.46763033054672,54.306608826820856
15.424038702111995,-2.413622447604163,2.8071092773283457
-8.499274531579909,12.598145354510795,4.470248884919759
-0.5111868435117215,-21.844228011423496,119.68470392180602
-1.6209127973050663,21.26202717326644,126.43035175152346
4.278895340164936,-1.3512065547438898,16.458720096446577
-4.913922541725267,5.851304177873418,33.06932147836403
3.1404954349870504,38.161010715464805,35.292692358378815
12.578699841190598,18.600534079524035,186.06928851411666
-3.8542329850192014,1.6448152062937587,75.95400248678412
26.795965917151875,5.203858998987884,20.700585714961385
-7.138017652158425,5.617593176616676,73.19481790911762
33.80501532754363,13.175651333343364,52.95343147689972
-2.96025850938833,11.638607934191121,56.540430219446904
4.287510387275322,-14.654523819383407,93.28529941451235
21.619211836148157,-11.157178969737542,151.91811324447278
-7.18681234149437,3.6595252827839166,182.48816047741542
-8.802775724900398,-16.348218956535128,43.77183004115381
-15.532842883528465,-8.964944785701034,54.728563355143734
17.75924301738717,-15.681284059385463,178.9810899478972
-13.174708214275478,7.702032700221305,122.81792911578648
-18.40625429537416,21.58135525983902,87.7081204530862
17.339596628272567,-27.82382788774242,5.918156299597421
-5.693676015494255,1.077426931071581,199.87785852577252
-30.203748338122157,-14.743131925488708,96.97886747190047
-20.255631253844694,-17.345767801757912,144.963005358618
10.67113632338992,20.754547492065576,23.6583736224784
6.9320517125110035,-9.911284094589698,154.2967324768638
33.006895644927376,-3.1477138779095704,117.59900075375252
-11.2307263857759,6.47442024983811,21.746932760337145
-13.399339403754984,4.210013303392227,128.97627872804668
11.288262191819427,24.303387140782494,19.987876686586638
8.69559194590977,-20.407900880354546,129.0563063676294
-32.79304072988957,16.657634127621755,5.364181295941872
-12.255127628290492,-19.160490218516646,164.3124759998328
2.7512716920224,-5.540252879643902,85.59493466939072
-1.4042745686980653,-1.0210096959616506,139.06810221222528
-26.791393365086748,-24.957951231937965,169.92315713717662
19.1709891432852,7.7499456268858244,87.01422995093964
13.230530087820547,5.656659204658367,148.96055447015365
3.1392520797354715,5.076739572279226,198.690143764906
22.06428219746066,1.7166715571684568,196.95833114930085
14.880367535853969,-21.15236529781318,40.5565329995482
-14.238614498684202,-36.11579100577056,180.05432701557194
-13.501044874704293,15.256655650488703,69.4529985804389
-13.246808687652848,-32.05440387016725,141.23214799534657
9.680582288458238,32.07902349166635,132.43722757874676
-12.40142284787648,-20.311685004240974,126.24958207466965
13.428532680366832,12.647997009240756,182.43989481968342
-27.476033178514523,25.75860091816157,15.87047280396565
-8.733659504665269,3.243943082988409,19.27160549808122
29.62725063579443,26.152677827923778,173.96315059609367
21.782695008197564,-2.2103304408304147,176.4144893143041
3.1823177110190803,4.776364014953722,140.74572609199828
-1.4263000787336064,25.77470367387129,12.136250224403188
-18.10681854462103,-1.878807891766891,17.311433095924667
4.4936524339380925,25.551924887713355,190.71675185633154
23.004239570649972,-15.610693159025521,94.49492093801368
-24.41923280571002,-24.089991110648345,111.13935635270478
10.069013468461756,8.944180029641998,168.4973353938716
7.735356313631643,-0.893481463311377,197.09404215557694
8.511605644698651,-5.381074930729192,156.36701920378084
-6.170929479170992,4.631112918275734,25.374619530697462
5.991177333960177,27.513167391902904,41.97041655597695
-31.325300064686353,14.609922592114064,80.77731729295343
3.5452636324485582,-15.75084767103493,91.87984838191261
25.687021368392777,3.338151197763934,155.35708932554067
38.172719198429874,9.895935427723066,112.68759304899132
-21.024700394635076,24.008847341792638,194.68702374901048
6.687362967368868,-35.38755996729219,50.962694008732925
-6.685606616406727,7.971576799429744,83.66034662869599
-0.2685685171512265,7.231760633647291,136.83785012776775
-17.435543183057554,11.477844715649978,38.27681959057643
29.24838640850975,15.745124664115897,79.90506857880423
-18.85196769069701,1.0256292111910539,118.62450724474319
1.2879205730705863,19.410518763763974,68.93989411073227
13.565479358720005,-20.8234669270284,95.0797713190793
-33.983170820803394,-7.200400243216439,142.8173588243479
27.286453744623344,-21.78844411661431,37.624537654422376
-13.733985056610313,-12.231083168413926,172.95281247089392
7.5108747855097935,-0.5392039833825923,126.7135743491358
-4.3843662381991635,4.083802608000268,114.59211236904278
-1.3140964353347406,18.287120179816267,104.53390914086953
-24.193047598693518,7.304587645367666,106.08950839656468
31.944012667097425,-4.618157001059782,104.7838033830216
-7.36858683332263,27.492032646433376,99.62244963196447
-8.678102558925282,3.4416773791437802,185.9447443505799
-5.176510512066629,-23.174540610273617,65.80656090140167
-3.094827706577725,5.3379658166537265,28.527837690249292
-1.509226183393664,-2.7231094595287355,68.57335440980819
0.7866761511649913,28.318886814529602,139.27553756958235
26.35138217202981,1.8994202621652645,120.21200191312613
-13.55674706947329,13.383250132926014,17.46310450888813
-11.292739142621302,-3.0150454813539453,20.81778297831547
-16.17614992252682,-0.4138009222831089,1.5411541228010472
-21.26276756509373,27.730085751498727,57.944794917747025
13.906622288088462,-34.82253856362761,186.520348687071
9.567591777267733,-13.091949617812913,25.13944154079326
-24.244832234478483,-9.75064753319285,24.94684197261543
-24.561904336789464,20.044312186028797,57.402765924802026
13.123641005044812,9.125578337844075,158.04020671299503
4.758958630521211,23.395923843892,71.40719118320102
21.32785911776554,-1.0267146245240804,75.02580861117696
-5.228394751742407,-15.25790344697081,39.12705004342554
-22.547272462853257,20.47764361604237,91.37497545705067
-26.74706191039646,22.830008535496304,42.43622067489812
22.67756014913525,-2.85421974566373,77.03304381137454
3.020729694714923,8.089363543662435,39.5677226595065
-0.9165957003442592,0.5321770541809179,198.9221104714832
6.031828458149812,10.958037085912277,15.070240145928082
-37.88588164809545,3.1471699757900695,170.79100081732363
19.164903927232295,-24.265148642467746,113.92029266557377
9.64450137056144,3.8534914063817243,57.895782645847675
-10.900591490662862,-24.28354192811167,90.54186507281565
-0.14401139196048576,9.152800974814124,89.61449490874524
-33.83565508556744,-1.5974461633229302,31.875202719830178
-0.9322067698340382,11.381162706899447,159.86193691475543
-4.928070459686277,-2.1646962964121026,162.90218973128538
29.14291473398339,-20.730448382782637,199.9023393786765
-23.984711752258132,-25.030836550164427,122.97583849690245
-29.609861180120003,1.6337064932179766,191.33522233529808
1.0597832569619388,-5.217212545914109,153.6613609761215
-18.353086789761083,-0.19795941312972004,127.494394251578
-0.8576251496679876,-8.933667680277923,70.63227029097622
9.450737368936254,9.97910929071586,184.60889838565674
-14.348471855521197,-0.8010826820040985,179.6880033908273
-1.281560398085491,-2.249882752756024,177.1155146239134
-18.74236028215685,-34.192297418320436,105.30411454668021
-17.043506030169436,19.02096682437762,36.533067211974604
1.1309561091901812,-0.7206461371816827,19.09834456408559
39.07491011326301,3.6544909774742673,127.50113864244301
-12.139599760789828,-11.619972672996877,113.37922209025328
-5.827475677211162,2.1282877575823824,58.52404561501368
3.6574010653513964,-4.2884199502227185,68.64019061758513
7.540945322648909,4.284524898287321,36.74860040589654
-3.5092926288081596,6.731963517699924,175.10416441194226
-6.9762742636074675,-9.742994006027843,123.56537626358843
16.54068638907104,-0.8806851629967146,157.34810440468544
-6.428917615167316,-1.263229280858765,25.883587320544144
-15.476098814712302,19.239951834558543,196.9720902043945
-25.951622969554013,23.60216594750271,79.8011781712162
27.373422742919967,12.702999425081451,20.255044270533794
11.02191483898753,-14.221090966434733,142.0032858589017
-14.117503945797083,23.295292848175016,156.88828433583032
-10.657524732458729,-13.674030372929755,77.97768512836414
-0.2790440620362098,13.313589392133062,114.08085439730131
14.662422605970265,-10.265003771566878,49.58299612280754
5.843195863916915,-16.860491833881767,96.14622975983542
16.75041101057868,21.802771312253434,96.0476429851914
-2.2611603267601272,1.707562428250321,99.29969036836664
-4.717359274771173,-0.7857975425126291,138.71506411126765
-17.158005385091435,-12.786680447103873,16.596072536267403
5.889728902115624,-2.5251441020273147,139.99239884345135
1.7106921042575651,-17.064673954939273,109.68630552266964
33.67379064500228,1.403381634829145,121.16174306035485
-0.11032193993407889,25.613491565088793,40.6077899087709
2.5531588036037025,9.808360929367474,64.5517355963126
21.87162408134218,9.680601955648383,160.89943963858147
-18.992631816296505,-3.220759433870137,120.89079961171363
7.3599805830237806,-30.22733056357467,100.76336860228712
-7.2477993554281115,-15.140199861890423,176.16357683404365
-12.591278865676369,-4.027025482215586,175.19783739838851
-11.554460842220003,-31.612407227164976,69.23516984405651
15.313989969297388,-2.004700886209815,135.99752079931696
-7.68875233244871,12.712162977595987,56.881403592180305
-9.0022110290262,11.036339703664726,165.1679810775447
-4.000229601313059,3.223202803065572,7.924596598277622
18.699940966496417,-18.604672825015967,3.9253499237109635
28.108025481802734,14.613703188755906,102.14888815469476
-26.199602828143576,-23.414095747217722,104.48860691903592
-22.59490078549099,1.5082199089106412,105.86325491998294
3.7024364506821725,4.361158566401245,190.97006325706485
0.5834076941422982,1.955873700975357,12.741447792503614
0.6664098685799517,-0.914341722364051,99.67109655545075
-3.9630725269512443,-3.66505195920664,21.727029164470935
-16.43020983421019,-25.024451419144057,43.847987953980635
-0.09331211873074786,2.815626192248283,93.81259863178587
11.33388126504307,-14.821101322192941,34.73074757073113
-0.46203471367106624,0.78740409244997,153.53431375979082
17.662618245223943,-8.44967961589087,163.4352029762944
-30.182697535378743,18.76315676870086,181.64756740368944
-2.3777328939461757,1.489594019293253,14.549982195303368
13.146390718793034,15.187592601585655,163.40404136123283
25.45349545253852,26.04341877340887,50.51714939250198
-2.9654198328007033,39.41503523160228,15.533997268833645
-13.918471999150485,25.284957395055386,96.86149684729916
17.402947881925794,-14.740311296149029,33.70367319882814
35.90456286513056,2.6245280834174705,126.86942058517417
-10.740515254380208,-0.536147767680066,81.36759811190544
3.6247639162094987,16.77107026121311,43.85779539311723
4.72455728570533,-11.001985712401568,115.85502319487071
11.926573054461471,10.905930355119809,158.3211073635603
-14.066942089389956,33.33565975400371,30.893018059505618
-33.037972085794244,-1.3462715283082476,15.579124399191159
26.802224454825627,-12.122897994354059,197.15015356137252
12.512136800006335,0.9342132958609888,38.23666520656277
-12.397059895909118,36.96070285027182,171.3632858869255
24.2185716762398,3.2921639101152573,159.98969414790784
-30.46847958766921,-17.05509307874257,102.08769349691916
5.534105359977379,16.388197690239885,10.194141803324964
-21.363764934957363,-5.809876571203814,99.58661819374359
-3.435333982909971,-38.90332511120074,80.01412196979479
-17.15319035656104,-15.17983656896106,188.6009079499146
12.190481581589717,26.72574557797363,97.86552302275477
-14.864636507842121,14.045292856195655,25.998801652677916
-0.8952681193336252,-6.9819367404203785,89.92123436979493
8.419578389650216,-24.75595448250726,6.053677388073053
-5.642657092710678,17.730058908010935,50.99216168390057
2.352071967084086,-27.176259552754203,143.5016360598479
14.368432082899302,29.471850747790747,18.270293325559784
-5.032930651955719,-35.29378191930817,24.928602906444542
-5.919821280399495,-1.934326287598921,29.965211927798375
14.796100482458323,25.273190519834323,44.85990868665657
6.893305691428229,10.493415693388043,141.53087078400205
-16.779587047521584,22.05979324799077,120.88126978961779
2.95520989106245,3.800781260473838,90.04428932782751
0.6041286785745138,-16.96366617678699,96.91486937178131
-7.177800652652316,-8.516630248976375,14.368195705169784
7.156075766482468,8.361330036397755,141.1431027554691
-6.228146071265677,1.8638425496147812,74.16881515392146
4.910963194049427,2.7765280467190037,94.24223228077577
11.263111259900034,22.781336118749863,155.25997553643515
-27.834783180597864,11.936150547694034,128.15379412287479
-12.920787518330364,-7.924373888860535,47.75869311731904
23.85199511010255,-15.212489767205208,174.32772710716543
9.212096836984527,-2.2748306053151404,140.13257330538008
-12.987323836478694,11.330085010752308,70.2634538108614
-24.513361874300166,-11.071501903751056,56.26812933520551
-23.507571292402684,27.284343747848812,114.42795480565881
-1.1939161060656354,1.1445425432823424,178.61400015364478
14.175996123281617,-5.157868291630016,35.23336017617158
-23.887679180828208,-16.5627868399143,44.08491165985586
35.06598325847186,8.818708517097722,84.80495043467025
7.028355281782845,-20.008207020384305,196.63484959279458
8.18439237155953,6.266980516339804,145.7995727046079
12.984339646366957,1.9078465587425177,118.51222040278748
0.43831854496363243,1.094695451143642,20.57764442250951
-29.50628075806144,-1.001514603107301,40.33185846728551
-2.4591298937061175,-7.395530749716705,75.54175200045627
-0.6504682473201767,6.65116312279057,137.92905685595161
15.762456835387693,5.566307659846684,152.89134943775048
-0.1722730721619502,1.1929545199832936,108.33883600948336
13.924388145985045,-6.056376156505531,170.14006008953533
3.752840780463405,10.255326502140429,98.17140609113244
-11.567087888665077,9.554772624282892,139.87151601294624
29.745871828003626,4.370046261235395,178.659130038854
3.105979221076935,-2.0227780439262664,177.9346232709139
7.040610449868276,7.5493237612131265,52.61751843002458
30.25198475001455,20.776005040699875,137.03575730735903
-22.764713080520597,22.51708420292112,109.52789804398608
-29.942286605356916,-6.889745122315387,170.83072576551365
-29.286057660963664,17.740263839834267,130.3854637347191
20.905763265282797,2.6950933464264075,190.44125871788586
19.394645549501867,-33.5339436263133,26.39085299824975
3.628966920110741,10.714076672036432,95.2804802664843
20.226690776770866,-6.687668034819229,64.70087872256656
5.811136976859086,30.758153509029174,142.9744731597625
-4.621728246366645,36.941175238325826,119.21327842394626
1.9727195560841575,3.559672118223758,52.425199904900225
-1.3197169682753491,0.6703516465496251,22.321921432838778
20.855674351399095,30.440655273605174,59.1897756888748
0.1640250222198367,-3.5449282703800122,104.56258214157883
-4.812268124816084,-32.16259832529475,9.964635289419132
-13.254224857210657,-14.738609285298779,16.772925468337064
1.5873730662400083,-0.9195033292773747,182.65977464412794
12.183498348248138,14.892307413694429,54.13994681658843
-0.054366743607524616,0.049588653833466535,57.79091313188782
-7.5582509442557875,14.683946642127108,43.39892833323389
8.788678025940614,8.53216494757822,135.8598137616827
-27.0656258729802,-7.177080351754021,176.05414006320152
-20.671239284949788,-20.225602659433406,154.63115892038007
0.30362362466974335,-0.1375306301052589,153.57314546204125
8.419832193255072,3.9905083212365167,174.63240888140237
3.7710356203437647,-3.7401701783144023,72.93520382017982
1.2280783179383485,19.470405938646287,99.12473333208371
-0.09773842818729563,0.4693632870500729,37.48454923092899
35.199830020074685,-1.2487837116250455,25.934024020516723
-32.02853538668445,23.37560323463623,110.86521572317109
-8.379522543700586,9.914534522516549,123.96625090171352
6.199171793517969,-3.2565962615065964,156.80643275976917
-37.21017592617307,-2.3408532813582847,194.86641250272885
27.746231383976173,-28.204557246277744,70.0807387232491
-6.877872435536998,-5.403263670613107,30.07353939127888
31.38410991281965,-23.518725169099653,159.37205922355898
-23.196834062035734,-25.709925079190675,5.401444335168093
-31.433431698176058,13.289947946251495,129.47316472172366
-14.10160573888679,-19.894931486320292,66.05754305561891
1.1472004369984732,12.073924437945138,177.34690585929394
13.700291014324204,-28.157942050460438,82.95216644786332
11.708425741971418,5.365525250234461,56.5039989580048
0.17863407522165856,-0.08021824176405891,60.691484328388825
-11.7629810771331,-20.68087885544567,49.421538679326375
-5.022709961367614,21.098676859357514,148.8159075644681
18.462651694637472,16.449788773403107,14.407380987369578
-2.618254473933472,-1.6843320515836508,88.91188580127402
-20.847904505239224,-6.298557001997053,56.41533318145817
-2.19069949171347,6.4298369852761805,23.490448189129953
1.5830632773367208,-16.260041620546982,197.9185774561146
-7.072318552547633,-29.71182388143742,12.351787522742907
14.053285480188624,15.019247556151209,137.02977713718965
14.675956329084869,13.827423811598319,20.647853001793326
-0.7141924410673349,0.3546826078116755,151.62709652203048
-23.81574996948241,12.303319882871715,36.06374170388227
6.6415441376976885,-32.52570731207308,45.66030476967909
-25.959409238755313,-4.4775602850066285,184.0815004273653
-16.033864389052077,11.957231349235144,0.5003500337434685
-23.688277148686463,-16.942164149238188,115.42731589284631
-25.91041615539107,-10.052428533985163,179.4575133346112
9.724534090332677,16.655486799157604,99.04514965271049
17.55313779530518,-19.278005381527084,120.99941794096847
-21.86610965032505,-12.442350892305601,122.30245434989466
-12.275510773887143,22.51722896913758,85.13098382397988
-37.470048964989644,-6.037874661578852,153.46850949318048
-1.5341369152679658,-0.6852046767014988,37.596099540977136
9.856453662916495,31.413446871949585,150.49426680543135
4.680924865417717,3.6496558526219234,176.63067083778935
-21.907062529226238,-18.638677983359262,180.12401293623887
5.525533004649181,-4.478113640032759,142.527598077887
2.7516500552998995,2.6390687740462018,130.44729129821832
-19.866980697438745,-0.7044116130826125,196.8539873446848
-20.601320015313792,8.96914870613936,53.26444437296749
-4.484042806413601,-25.004748079350797,24.46073193336482
-17.93554961015124,-12.63400604268384,107.03815446315019
-23.16248621357193,14.959806956652812,68.77966428232976
24.583027927868585,7.803624420661405,105.00864687039963
32.42803438126021,-4.462845511116283,79.3947270491348
12.688542309312732,12.408420446016327,40.78812824755178
10.082789202280049,35.36352527679609,26.872061698562955
13.63110891799471,3.107447454780057,76.78672929965924
7.8881414725583,-28.363510976724584,138.69997582732978
32.35515854860962,-3.2962941029128143,139.9985209140824
6.728981169034519,2.1990829280093553,48.8722895344365
0.36513508351124346,-21.000983717305832,44.91279937653039
-4.961399693039113,7.290776782761387,184.87384946343585
13.879943837399853,-15.159665863634144,169.72262782580486
7.878663265058716,19.95509084882859,166.66720301501383
6.309012932149571,-23.022509087113082,143.7183157496476
-31.172358977021194,-17.0035333515683,77.70871645700701
-2.849484997322947,7.1140137406176045,182.7657755843542
0.5166639990932131,4.936176018905536,6.5623154659211425
6.904834111106369,22.448693727606084,97.14326362541739
1.7988595288906863,-13.184785589985733,141.21628969353762
-9.570788009658823,24.953535556313387,145.14685311951737
-7.633199284952742,15.200144689803174,187.9144897721245
-6.037896343561474,-2.914216347525575,168.93307390874057
14.143982840989826,35.92873699542021,176.46983095377357
-8.273488931417731,4.652279869850587,171.54030367818768
-25.269410419385597,22.76145968100404,19.504087888162914
-23.094452542089673,1.692973260811028,89.5235845082712
-9.556918884319334,-7.338660579689316,23.586771665418272
11.250215296017233,-12.505553161350674,158.14640907940543
-20.613509770695924,21.03263631200019,26.818971992616582
15.913292276260998,-7.557730731614657,84.87717324666326
11.55194059571035,-13.871858205954776,187.96928560874375
1.5458674650119903,23.35784924450873,45.93531253991125
-24.307475563797208,-9.09285939763654,157.4952837970618
-8.717233752167568,-11.590634999968144,155.41800135537548
-15.884354240666847,-30.871280334496568,195.46563234896757
5.142059297215825,0.014712626538326118,158.80409334066258
0.17541749917319022,5.759704488067494,114.23184978930539
0.34714411569327736,24.62905653061079,67.6616167854587
-2.3526153352280237,13.496092606887478,173.95371506340288
-0.7467204776936628,3.8082531358809995,32.9145408275662
11.055277253871841,-35.158129860134494,10.166668332433314
-25.287547004867818,1.5021509622081775,71.24107397611053
10.05029864675803,4.205652980050524,46.397682142608645
-14.461853251000504,31.868127361740612,95.45093428039687
3.948818970149298,-11.00299780122301,48.02117053645964
-22.857225412544153,-6.788803108000065,77.5651098080969
-1.13627108805796,24.97201465399737,181.5468470766841
-4.880428165457883,24.494868321215584,10.595015313078315
3.665454085976952,-0.6532895796946377,23.25433454920498
-9.528852234012225,-0.9127781741684414,63.86215788241705
-1.0641085541590294,3.623887652344199,142.43819421689344
0.7608427743545301,-1.0286732907852443,96.47394520474279
-2.421316584857861,17.950235079384214,110.53462851784623
0.6164171335596509,-2.6321231351432486,117.1847373242616
25.332938407760004,15.775328705046887,3.3989464899959465
-16.011547245704,-27.451535324714897,68.98244941039408
-17.64624665579065,29.219658024023758,141.77632210302727
11.591713782845423,-32.478295175899035,167.2898708750516
-9.770717459179906,-28.536336844646446,104.2060467924907
-31.765762008975713,-21.1366975213814,26.52222760287919
-18.224126806076452,5.763143377622487,27.201383896525
-5.607677741059002,0.5994103202407962,44.11586467758515
-7.400216010077372,21.889696855444505,151.6380187607746
-14.411330906386928,10.572646161109633,38.001344603840394
7.825637322165611,5.678037865215352,119.41927647782134
14.170349133691415,-31.45754745977072,2.9478315810484768
36.82844913877977,11.435027877647927,65.92427422851135
15.130864410966737,-12.365579297962848,135.16663677337232
33.0869956927134,-6.388893307971176,29.595092011030566
-19.546331249159554,7.760810407420243,13.68001143239832
-3.069571212702677,10.393656076495791,164.13467599659793
5.769975775011763,-8.42861289504704,14.395402335566466
12.436102835583283,-22.360668809556824,79.13120083415042
-10.550415465555698,-25.396732670752098,30.399138872813246
19.840937180775413,-2.7514435976510008,169.18772804763574
-1.7855434298979458,-0.32821511111659923,147.61639646692527
21.297177866486237,-12.128569529881288,59.448688211687625
3.114963149650019,-9.493115167827723,116.7425734463907
-17.96077669179919,-10.23095398698419,170.3611920671217
-8.509523497573655,28.87911917848472,163.05327989127892
23.61870111155059,12.48801585645576,146.05613001011946
-26.587172963495423,-4.504878512693429,186.53590808142872
-29.250494013758228,10.289269216920696,182.68497331651258
-1.9853763576646297,33.45771887795938,101.6147255847732
9.204218936324366,-8.598921095094454,187.77614011425075
21.567938241199595,16.18450477415722,49.62055017598146
6.73239963409719,-15.074442109237044,18.522446063399567
-12.666563417470863,-13.04948671927134,86.3170498299181
6.036482221014087,-26.582378339880812,172.42716806164808
-0.5149520109096668,-0.04874119965762442,72.05414189113569
-11.769573122632481,-27.237639516732678,47.22272592070604
4.530051810359078,28.437315592776223,127.31778083142082
-10.220978424738748,4.72760008110292,108.87199732549423
9.160256550026,-11.681376933260522,46.599116952698914
24.096744915267575,25.432394254220515,53.844227310987016
-2.8669438064592487,25.126698165025005,158.22307070754002
-12.811270167399321,31.41652906348932,45.90370470778251
0.6466026230683609,-3.285847414096861,95.57369498295823
-5.090576772881942,3.9023135971391065,4.354759561425259
-12.481650376387773,-1.9738250430083952,98.30174890192778
16.38768004939797,-24.707984504769954,194.6111965073818
-22.85049035440572,28.777602029615064,62.84394890883838
0.035916286047869755,0.08602101481192774,13.109739685341747
-30.888358563015483,-18.94085412319587,130.4324475726691
1.1562397731692478,-8.814939137097348,193.57843944508403
6.569421195737916,27.331992384912393,140.75795141666876
29.776422112693012,-10.730517246325274,52.24053609285748
6.018202141536032,-11.475936513702626,159.44046585202892
19.260834674173395,11.69236527806005,61.854067318641185
-25.844901241324397,-7.316488712132167,162.7659947108184
17.903643857515956,10.636046868856226,15.037575070985554
11.750805360333112,-18.543855391691917,156.40197123951202
-6.045927903258645,-6.313980811469359,57.82501932224831
23.47153004777437,13.861758692411977,191.55786802252965
4.418392656386491,-1.5746379052492794,167.78273118128527
-33.938878659653525,-0.6813141878266128,80.62824927278629
-5.643184779514621,35.411757219304285,42.86867931266154
-0.7534968529273994,9.256084859568396,64.84270484943737
-19.32991551141872,14.818761356617818,118.28611969473364
11.660251695140866,10.19310793083825,128.17814656623
37.046838050228914,-6.889000247908647,71.34794476748712
8.829498501831479,6.337229292893934,37.16726426916406
6.402598423400224,-9.440867506596106,177.75545453410538
2.4964141695527573,-4.372825277725296,28.576108601191173
-33.24246146066334,7.081929829543459,193.52677452110748
-0.12069112943304158,0.86597260973052,136.17557878992451
9.873952990351729,-17.935467944273586,0.8798911783136187
-17.8331744846221,-11.590241271047311,65.06771229464461
0.37666298445532126,-1.6202715965143393,83.93555241931179
10.269755198866987,-26.60666068109976,36.4478582448992
-13.58391297943886,14.493264089506898,2.6833255277877166
-23.135706615564818,27.058072578980738,115.15991000181027
-21.928680492058167,-32.315639471240445,26.7512649745963
-26.952366092223873,8.276559998457852,28.964965169341596
34.37641217457502,-17.17963166421914,193.99746260833797
25.784989868449102,22.085082144413565,36.707499604969776
9.83081909369634,2.251427686694563,120.26847459180694
2.1897799944240406,0.5543751895617849,174.02173780307248
0.5259077502640249,17.53653980557134,119.92651857530763
-11.894548196296393,11.30187857303328,168.04428116984113
35.028753700576786,-3.0895884948634844,178.67118155444177
-28.652373913255015,-14.194623149076335,35.8138224370256
19.910221890364703,9.249708202970485,151.23308276940384
-1.3826954082897027,4.159921319895628,173.72005285740312
17.183381087467975,-7.640953305409909,82.12204177325772
7.291919412829147,31.792469553033662,154.29730111977594
0.4745636367605802,2.835604968449743,120.86765594614202
4.596887278427327,3.0370829061095868,181.94000546341894
-23.474965227874176,2.8147104260525393,151.27664205665232
-14.511997021427657,17.317371462815277,109.08576833771137
16.03569281760176,9.161172177634281,33.70310625230448
31.49722478982889,7.87471111048066,114.35787507658245
-19.678058095107275,19.511238729796883,148.55308007396283
3.441028408065935,-4.353512320714903,162.84107694281445
9.430157298395402,4.78643528844041,1.6819143068155462
2.9076877846770217,-24.588303513471597,106.19814656516265
-7.764169724979826,-1.1092873340061782,154.88687273518846
-4.584034204695212,16.60049975396658,89.14117293720996
4.029244008896058,13.228886274428891,188.9132137043142
-23.06294259108687,9.546237463494393,119.6215474371563
18.52390113032631,-30.018091201210506,152.91466106947445
-16.932039548699187,-19.521851289743893,150.3843048444225
-11.390377064384092,-11.543691150002456,118.99008419893858
-0.10172169932431153,38.42449508170332,140.41283251798185
-6.03602566104443,4.659111500876969,152.82176713531985
-18.69419412390715,-13.167767077626896,150.54896041347556
-18.556705013711348,3.000565998112328,53.894403838853954
13.21479688487775,-17.524411997255637,191.2939397935089
24.516764148434348,1.9776827321418475,10.857007261420337
6.963978067256317,-5.405043249745866,80.08756374941977
-2.0430678560276503,8.834351103436566,193.7800389081836
6.154382640992061,19.503610860489246,36.83018913743123
2.159130620207905,-7.801556856551146,38.096739630550715
-0.8996773514881751,-0.1252284356082002,34.083871542836164
5.229601907874263,14.894980933027151,170.83198105444094
-28.635961452274167,27.621159672002772,57.44933735629958
27.875674442607764,8.178988188462778,111.73558591374291
2.378665851093714,5.446353659760848,38.3085310760608
0.8883009846063085,1.1696304537033155,75.4084137623624
-17.119746433441456,25.78124958964872,150.71869305204424
-0.0964277470768591,1.460763662084313,177.3558654136106
22.084225287121612,-13.635027329051347,10.835869287201504
39.487497300159944,3.32334653084476,176.02734182354658
-6.318410010705968,6.119710894194381,56.20416407381337
-19.0978421072805,-3.72144961395797,29.67368341293799
15.272324306796305,11.146775453543594,29.74875894857032
-30.547887646092214,-22.55517785665018,79.42588545001932
-7.525628456128881,2.9430814265830136,137.60261161592126
-11.761819684057853,18.345946966856687,0.4969571488731894
3.242112875681312,0.8180427060803479,63.88218438684588
-22.115031705744634,17.98607068807061,10.54021367322935
-5.837336332880295,2.9938688063655565,155.9895552433672
-0.7692947395844714,-0.1763806793878665,177.7568373654197
-38.50967465237127,-8.400972307085116,93.15683061576267
-0.9881955885080356,14.20723254693169,95.46611602158714
-1.5249309986933508,-1.4112696894089958,161.5637306436507
-0.7119472842866349,10.4538656692771,23.15350599915915
-23.111234525356547,-6.161027354475416,9.19249107097977
-17.17487642723461,6.636776418045516,172.16861808621087
12.816412947862174,35.886248755941665,28.196541040841637
12.132144986936868,36.50247172002258,66.42136364850914
-39.66130109254763,-1.0220513906225246,170.28161093849872
6.918882249540956,-11.749606511778907,115.91197901541422
-26.918672943319013,-11.29113632566047,25.438501996495155
24.94274087032478,16.859394366826397,21.213984181950487
-10.600779593233602,-14.718037642003102,71.65837398023203
5.58267213616344,19.68967351151277,138.6686549824331
26.928357431544416,25.27528538437894,189.060105160991
30.686180712420324,5.340802047820419,182.50877046819835
-9.312739885665305,19.521787671047182,25.372887460865634
-11.330777930968281,-16.235862734836704,126.95990718957925
-23.15246327459085,27.530828128172352,179.10262571722748
-4.621711057820048,16.883380054315676,134.20405701577357
-5.324470494301326,-14.052412537483967,127.73575208398749
11.360775601749129,-8.03263531851092,77.48548952561684
1.5275732519469445,1.0518083343997569,7.334077056087107
10.776667236761494,31.34687651928411,113.57206866753337
-20.47475329685166,-20.923618303130315,24.13825441247568
-14.3718523594769,-9.185194118237323,114.17960886273286
16.795327987205035,28.55912773010345,79.71154720648697
0.5632180522022006,23.85502884775883,30.429189870929243
-2.2399700734200847,15.641079242762046,88.60719747546617
-9.139543817459996,-5.818652308688953,184.4017415845659
-14.871573402688627,-9.982893194343722,95.9610024418827
-25.055999612141523,-1.174566493573269,55.29498771338726
3.3676828619101205,-8.831679830797682,137.26983609775206
4.983767142039719,10.37565234306077,8.740398918580361
4.3148547943859885,-3.0198848260776487,176.95148138798592
27.921216442878325,-18.828542260203378,43.59879053464248
11.905551839936807,-33.640240321507704,11.563008639018534
28.059772809319,8.060059325427801,131.06274210981462
-16.05315324217724,2.6597126400970024,177.0501146212424
2.9600618324401315,-22.84458936722128,31.413924272041214
24.603445219074285,25.08136711721705,24.04100481863518
-0.6568443320316265,0.09415172556543994,66.90622954873216
16.716818665119266,19.655846606947556,52.61608334678043
-9.363661677404375,10.874727975606053,141.41407474868254
-3.0597824309831525,-3.39777998179343,181.78129254782704
12.607479172099762,13.315783389429388,149.61110919092346
-14.29614317610761,-32.34194565208033,134.48907346371195
-10.993678046362506,3.234429757016782,10.1010671658889
4.352596124536141,-15.013906133151796,115.97213831513638
-0.8032110696871215,10.373246581707363,192.3688325410399
-18.67985584901106,-0.06726639749461892,146.0991982553538
-7.365152682870299,31.369954573915436,107.6552642854283
0.64762899096822,-5.352292768056308,19.730799815416745
-18.90601329552702,20.824083459259707,148.1059215830242
0.5874057384609116,-31.51242168793471,10.438479844372539
-2.016740252633669,-1.3140441427440657,34.96499636621129
-8.255191815944698,-12.935622315356385,77.40479737578636
-15.371817396012062,22.61924586833141,114.51734319001179
-18.789626414450456,26.863570349616165,191.77441444657893
-0.9492707827173054,9.224970204104945,47.41546311127522
14.458060038627403,-21.195496122308732,44.14729959551871
17.729788539559383,-13.44499988062047,76.47069755085477
-32.176607055696905,-18.694418055425594,169.46149955157279
28.479643004744084,-2.7669987153984597,179.1180891643978
-8.087129517989112,0.5928809191035939,76.269430471346
-38.801176483649186,-5.801416176742603,77.8561217185149
-25.977553687936297,6.724139622371423,60.954769472948286
17.11781510138227,32.48745615716383,56.3561369560468
-1.4804852071661232,-1.1035573337246583,77.88951653245144
15.42870902727558,17.918458909209082,105.94099135617722
16.211773168080725,-28.445208965429167,10.518927448507087
18.211569685653902,-4.777079686023462,144.15103457471483
34.539367617365976,8.50760844996264,41.028635335366005
8.817441341796547,36.30863614465954,62.787152316859675
-2.9599955823624144,-1.9110646470972652,8.831903863913126
-21.93997755555873,-5.5942114890240004,188.99896193423814
-5.372328220049969,-14.634726581007959,156.86703036932886
17.469945575615135,-12.341173727377184,62.224832104650616
4.127935329919529,-10.15558754583797,186.27216889198974
-1.8042018201643446,4.5562919281265835,95.6661315300492
0.8735218398001968,3.3833838784686296,89.61571764974188
-9.999517693041867,-10.303361561726543,180.80747453947274
-15.91816373790145,-10.864232540188821,181.97067617024604
10.95019299710406,-20.236336588842512,46.43346962503394
-25.100609768390584,7.532927068785962,188.9089869472416
-22.763646300086712,5.1177807909594115,146.0042781682845
-24.225003047456116,13.209059734426424,62.55490375866071
32.98506613863443,-10.030941574702847,19.851380583053313
0.8047704421586944,0.004548318233981647,162.79388452985785
18.121095328505284,7.252040776973076,163.95950392117936
-11.577256411762093,-2.7961504101101835,2.984923915989768
24.689795118972214,6.904868459209025,131.72129398965234
-6.396765308913207,-29.030173107636536,193.71193487142455
4.10067746449612,-25.413060497882576,192.08702146827414
2.1065161644930543,-21.31530124567201,67.63332290278478
-1.533445469147413,6.910125112295099,39.70451062479208
12.110476029611723,13.185712378674246,122.92879458743391
-11.72812538286735,-23.831435657007752,112.65214384636116
-3.4148386974115628,-6.384345034722256,53.90787109503536
-6.164263836597793,-20.67288637707077,88.81308153438916
1.150678780509608,2.681979406971925,156.30091197488585
19.568126153616223,-26.966825252764643,159.55053719346094
-24.05872704554663,20.19048440877578,109.650431459663
-1.3398613029027373,0.32799683004691466,175.81446426562476
-15.347685219062422,23.259550157002735,38.225732757294814
-33.25852463866985,1.4907287228811177,136.10285828367284
-1.5256022170943682,-2.7774807790957454,92.35717315472809
1.9981675219042976,-9.963143615414422,3.8558935346364676
-11.572304130557601,-0.005368124997648797,147.89062615273508
-14.7714492560996,1.5150343741478358,7.41847292456832
3.142077568142308,0.24498257959013386,99.99614599187426
-34.60514584053602,6.746296670085005,124.6561275664799
15.085122029971313,9.955389324025456,16.268359322813275
4.963264393876077,-14.979440153887962,149.6065533498914
0.5644890356048679,3.620988655817929,31.446813668109485
2.1329727203979783,8.903620205051837,151.70305245962402
17.017119661082482,34.507158804642195,25.745994544331996
2.2190035437650932,-0.2540270198540811,36.54066435886878
-1.0113864424862462,19.461367859590755,123.4547964317004
3.163683449875527,-24.97178169033267,134.71124396690337
-34.63752653007944,17.56382318826153,45.33138873963545
21.64200831786268,-12.767604913659431,115.02696721366247
0.7338412221821593,1.9544472332800489,162.60085613134828
-23.53635553106651,-1.8322857469995697,128.20802702859692
-24.186050784867156,24.49722609158997,144.15462740121868
19.927741185545884,-3.157337559349999,194.06399952390444
0.7428173723259456,-4.1633718065124246,33.14360326145083
-5.703454487452496,-3.1519114066274443,82.65815839205008
-15.371386384371236,-4.364924096989331,84.1246977778721
-6.87582343949455,-8.701558317611196,159.7938858243623
6.524553620953576,18.423586451372184,159.65264506123086
-5.665435602793271,8.878667523005689,148.83639084225263
-15.103973357186572,-26.874818541893486,150.92429055702019
-11.107047010645626,-25.70022341916114,108.87980166224
-0.5135673984020621,3.0954352582128393,43.93156578699558
7.48116270629862,-7.84010734469571,102.82488752752667
-0.44629879288816987,-8.030489271327276,7.6914269819820635
-3.0067186596423814,-1.3165323012410075,156.831122850864
14.458116352854324,0.8650132338496413,174.75798359773472
-0.5634754907058948,6.7500043879848075,157.24901303464233
10.634037212687936,-25.069485847754144,36.817331953607926
-5.76020302519756,8.490410054344254,106.63253529174312
5.1887045028985,21.221344635837042,76.86654604451819
-27.41046752946429,-18.902964412019998,27.391012366747347
-22.3650296786813,-27.745983384176327,185.69158221356034
34.039885557989045,9.7432922922631,124.02622315837384
11.196996064248102,4.767841884034492,146.26657729181366
-22.93383690378517,-9.461311004597654,1.5751162589086931
1.4186349831854808,1.1995874324735325,121.41833753432071
-32.41816364961462,2.3453233108461644,173.12402689309226
0.11014945582492704,31.851179509724375,170.57679330739558
-4.18351875373983,-10.061808867808066,50.57754017460066
-3.950768886743255,-1.7124751346349747,164.89594462111552
-14.08414683998838,12.736570591795756,144.02365383786264
-23.170070224549807,1.853575466693943,110.27889979653807
22.772478995664425,32.58440105800225,167.7571230457123
-11.368078357518554,6.446881476758448,51.2748908395928
-11.024894908626372,37.05417631135578,117.66517579469453
-11.053890109959585,13.692764916765892,49.656349508627784
-13.304086520768,24.729389993286215,193.2968952141961
11.30634609256941,-4.060888255065988,129.9714042745851
0.08020553868001389,-0.1981910116314361,115.15863801461244
3.9524010331737713,-3.230689583652833,19.91181474328907
-22.005316689807668,14.992823402677262,140.1370456482655
-21.297984864885734,-18.561327642399366,172.00465519782244
-5.805116285155507,4.698965766861793,106.98785348040988
5.1550058900195825,-23.259871103240602,181.9523780628974
12.885559093176209,-6.738470914408563,125.31566579137458
7.4191025535068595,-37.32833596832569,188.7087969891458
-8.155160031310553,-20.570995602681183,118.73631113646428
-3.794955670659658,-33.83313554331773,70.80631168790956
-27.772220232483832,-1.94678691305612,4.471058487557689
12.252871317699906,-24.037949186055307,144.02783004901826
11.233880508393579,-2.5556124929633404,161.82974032229896
8.557251568989647,6.08543370422223,128.11932730202767
-1.1598860809658378,-17.5548998112304,99.1430180476294
20.350064600569194,0.36142920576315857,26.07312017558252
12.797289464985653,2.5194974396997094,84.77255483539624
-4.74808883735535,-9.848618298303029,139.44288872824083
15.34603281688523,6.828260939891089,194.53964416249357
-34.020817571000045,12.737557305513787,175.27136821195992
1.61111039310962,-23.17700571881165,85.5736431928484
4.946951150088741,12.94902249793215,128.23825158575417
-3.192899751923979,-9.924439574089254,168.91493552159375
7.047218840801669,0.6313643809530352,145.26889138362523
-29.93142305490798,20.553361566854218,44.17685723340643
5.936973464615722,13.933776879586713,196.4961666428898
3.462292285823772,23.8333632344611,132.63616589018986
5.661746348306402,8.0861368185658,171.0804601840618
0.5930250555254007,-1.3480632358270876,98.01646840016687
-1.2122641472885305,1.8661396568281483,134.16249408404798
-1.5442389566769523,1.1477686340421527,159.319490580386
4.081455405383355,1.5037659509506245,38.768463322635306
-10.128400469572364,30.264617163337896,5.653988315827374
-17.66826879379047,-9.785778481381545,150.15650281208826
3.3673582427890936,-0.13530425258368634,143.19915658655972
-3.721137623132649,11.479664857350746,167.18209684951813
-11.476976719678918,-24.79752979340451,80.87299734364046
-18.258662269722358,-7.927335610777106,147.4960247129116
-34.2645167972045,-17.000716932219234,119.93840254488921
23.895049012080552,-2.904548039174434,90.67758213793833
-2.5221548931943913,34.985365499404104,96.81266667455279
-0.1517975063152334,4.843588508814764,83.7907469028206
