178.26049266113284,0.6031183942689325,-16.853502311773845
34.89653666843734,0.9543681636821761,25.246791146353697
-27.51773697168895,0.6126815008446498,-87.3521825859688
-94.42958517779113,0.8615459411046932,90.8364611587707
-63.33065761481055,0.627264239391092,-3.7164843759944666
-28.58570038651671,0.4316968037184268,5.667530259470587
-34.434866049340165,0.07825648834711607,79.13716682617387
-100.21943397326996,0.9269439482997303,-119.64334638897063
-175.0344615615472,0.8861687793111656,62.043028236486045
-47.79387477710759,0.3125843871910233,-156.90209984664688
-84.21942743938477,0.6895710239301924,-9.890934997920743
-22.14609871885912,0.8257498762090836,-78.92100759765631
-36.27368739831759,0.9695175892414434,-83.92121891854028
-96.63735064828953,0.7803880371080532,-55.746871600642336
111.66517798375321,0.39333925516233914,-98.18015065975007
273.5597479205946,0.10646594664334685,-234.08724554143356
85.46289968663743,0.7276976529136728,65.58535734613763
-78.77566538177005,0.70180023906082,278.20280210077334
62.29250353731717,0.6754628933210491,95.49423017045385
116.56423939452752,0.5258441117675451,-16.741031925551148
-137.36735758667476,0.8180867458041683,-11.633923922333821
61.97304069070437,0.9718859227732085,161.899781445499
-124.52009151198781,0.006275268221289432,220.69942938643564
-167.41876729090893,0.19299880138667236,141.62272220763182
-149.77603461222776,0.925386186179283,8.589428591702687
47.923341466131454,0.4720619184861976,-29.62350204853007
62.493948740883475,0.8204700150232236,104.26159976734661
-69.05192454035976,0.6471321418904246,41.317276018392064
103.8304715490465,0.5043423384475793,112.08062691637008
73.6173644817271,0.4611216488080443,-85.2993745151656
-33.78531862414209,0.07499996288707012,-62.25405011757791
87.82625082441369,0.004988082973735097,29.847822791290092
109.64844014682448,0.458254453083521,-127.03695738572627
136.76166078616336,0.23301493474560675,-34.580240493339744
-89.13392519285826,0.08115629730544704,-186.03140594776724
-72.96418298941418,0.1922497227512705,-147.3634467421157
-65.42818011430882,0.5521879788483247,10.942754699132946
-94.97782882367115,0.0017129657647850793,-83.17521913480005
48.287677231119815,0.20230633080015248,-122.8462335980718
-83.31075582331802,0.47464610020583686,-133.35359476283844
-48.19631251436317,0.37766451957214386,-66.17761454400807
63.88949013398889,0.9077119041438617,-38.126734877681166
104.77403908507017,0.5739069572014656,31.074488557918183
-80.31192658741358,0.6698355273910888,147.12390608713636
96.31751080591181,0.3255856372531253,7.716759237566063
183.4647854372018,0.9433177773003973,-1.634593064874443
190.78843038372747,0.12559790770943358,-42.68430165440596
131.8452925369509,0.5905855458507474,3.4044646470605358
66.63915051581385,0.7811510551112776,-215.58152474125302
-39.6189684774835,0.8843920104003631,-73.9339880165251
56.32181673353989,0.19234964030173174,162.20994459440888
0.1396945464702993,0.5920905044981924,44.00376224805456
197.11407200686187,0.8715025578511769,131.34234538416243
55.096372734416434,0.2463922957136584,-2.5070811076172332
32.64852012937528,0.7893524626126409,100.4239164545042
165.3257979996515,0.29740689947304366,36.159774477862555
-91.06053434495553,0.026672815129399452,185.83539399051773
-144.60673750092698,0.8858256388457544,-14.027998207607894
46.54216252313515,0.29001103437383136,-2.636506444991397
-56.17820703068321,0.6581233357057957,26.757033935122436
34.18034783855629,0.9558125905039828,62.96244867710812
-172.64533253204857,0.7285896859422059,5.8033181641932625
-93.93768635395881,0.05130447170738239,55.42173402410149
-96.60817090206477,0.2178156917514662,-162.39790658124923
-6.0315475028806045,0.9324303231026625,34.310867308957334
-52.56943395093212,0.2503029113391747,169.99537885790645
-279.96973969176275,0.289019498882207,5.1454384991812585
3.1759095083669697,0.8796141253512959,92.92919293784351
142.8224041870444,0.306619929157527,-207.4232062448175
140.0138858785744,0.8311346998951268,-144.1625356882931
-16.162668026789415,0.41504172217910507,-156.26897365452922
46.06671002439068,0.28940067616652276,8.233390330717954
-56.67291675015623,0.5330921911215503,126.85177118242589
-67.44001097969343,0.9757397966960695,-60.346171375870384
-142.03574016229626,0.8179553720029779,10.897961717970128
-66.14523042464494,0.9857505397770487,-86.32883748879705
-17.76232936683539,0.5397744755818524,133.10563012459778
112.9008026684241,0.31107939698364295,-6.951347357611752
-0.8177963640184888,0.9133661764147318,-28.00774721801787
-81.23031402961884,0.24162219497604398,-96.9220411306162
-81.17777730713595,0.08130871579760979,56.301412956248896
45.532262172044454,0.5411553734405472,-35.44350651983692
53.462890213902426,0.33856024624520975,-110.18081695617303
-86.49058966494924,0.6919910726028322,-10.858048482815608
31.52022901031646,0.8426620530259665,35.727416300471575
-172.17012781713402,0.5944699840625335,74.5986757058724
136.48334341920912,0.13570072441842607,-9.912463960642375
23.190160040824725,0.15341300375986766,-62.65872458858519
-87.331911101033,0.716788261442511,12.678708038443562
-52.76429414603578,0.4525293503351029,41.1532286453371
154.26707740798616,0.13605762553463208,-58.300732545258185
-140.97092471391022,0.8494687275753139,-65.10248857654689
16.207897900353853,0.8639901257790195,105.78447754452598
221.24614554211126,0.4893156598583188,78.77760691823366
-102.9454267389816,0.3452669046864114,-105.4039936938445
149.96139616992173,0.09135544425940478,-0.17057250933782847
100.7443948220708,0.8412794708066343,41.04928576603787
80.13947061211866,0.6055447863628635,-99.0879508719419
-158.44990288982157,0.8129566522396465,-24.75313065447574
-40.742584119628546,0.8488899846749339,109.76341367360212
-141.20464318323732,0.2401089151228527,-46.72976834430539
12.705066373655658,0.6119755277369783,-20.415518250473617
-10.240644453985315,0.24458303323840325,29.445003839496874
0.774985397841367,0.3402870244628271,71.3633090747999
-43.286176155013216,0.42716611115498915,-14.93675445819581
-196.82335059908934,0.7699282660785638,51.543163545822914
3.242413609222339,0.7588901195509432,-74.04814090344544
-46.95708544180332,0.12648202402993824,137.56990991519746
194.07588802654416,0.36413166291776655,35.708002652606396
6.013362151146335,0.5079594626912735,-25.833368261166008
55.55966338072002,0.02940316046282454,-228.9261842374374
-66.80424586780023,0.8683062685272799,23.11038660741061
-47.95302458793591,0.38718007086429307,-42.517015781369686
-70.09410558633175,0.6522413128815108,-100.70379343185134
-76.88409880224593,0.2651848691654689,151.39491098516513
-59.371545957689364,0.45995603355129777,64.45820095142706
23.10066126755804,0.8221997258642226,-121.23163546597951
72.94111258664778,0.6141226827556393,101.16012496656302
150.8515417304897,0.36220126941384356,-60.07140236875498
88.78460855243247,0.9127640543283303,-75.23088105751617
-78.64250646169421,0.3453535202863731,99.39144869114413
51.54236425598512,0.1715271294781795,2.3346562581348222
-38.98992466662129,0.8088339377507592,28.3758497680101
122.37531994219808,0.27739896033204936,-222.4112400202055
-70.88444205178767,0.08068091591089932,33.10426409176719
41.23141719332786,0.2688176089738943,128.78703835108163
-94.4431050436339,0.9059116927386218,175.5378919498171
-85.36651718023505,0.7831968603210995,-125.90222962248234
-132.6997889602994,0.25644860348001686,0.45170433253921655
141.5155738425022,0.23449877724752588,-73.04296651958512
76.80235888231132,0.3571361224252373,-108.75889367818905
-9.742684187717824,0.11209495906563749,75.81022231364425
51.37966227513976,0.34628552462888806,-89.29502081074925
179.88877171402737,0.4261003067746514,14.584209103757617
-133.83285520039817,0.5410947981204521,36.548660916443346
-17.991378078776272,0.11888943329736723,-52.27631548540248
175.8245615160328,0.13585577221728218,-0.9939677398317306
-18.054686060420583,0.2065499902285266,-11.64362877771702
-95.25014136773983,0.8952250762644565,121.52829263783227
113.75573438851059,0.18967132533868425,15.745228549767127
2.1525008973730206,0.925834928219417,-65.2747528858233
210.4536438060703,0.32546928315006607,89.45540558227019
20.492187731156484,0.418486583943122,198.48045314920685
-18.567293369071503,0.5794223101342793,-65.28217292693758
-76.21674636992005,0.9787390420365392,-12.104171093099168
-108.823984735671,0.5898768043863613,-0.025701972982145684
-107.14258875132539,0.8097912510447149,7.849941397556298
-177.69984501785032,0.24690640934918306,-147.114861566381
-94.91764480901854,0.5056282390336165,174.2595503228073
-114.71858595230495,0.47423949471880034,23.704781276348026
147.5206507197273,0.11652475484494473,-114.37931916887243
74.818596205274,0.650669478363311,122.46437171910848
-25.547372478294538,0.9310241152470776,-43.251773367884304
-141.25344636566717,0.03278004971069659,103.60607680030026
237.96921672961093,0.7391770227484284,-176.4085742852118
-80.42666320570709,0.3921445870017999,-101.13445149741784
-50.75224434193844,0.9126515790768753,110.3438669266491
-4.662295592821792,0.1548599219129846,-35.48437161399037
69.85507538307341,0.14448714766087267,103.65717215442356
-89.48122585285454,0.16506388539343686,-77.18023588185119
117.54563094139789,0.0021958825078193245,33.67478572035058
-94.17087244262218,0.021503823463976057,139.06700384645973
56.978145355844475,0.7046813828427978,101.14401136604106
-240.2784751774608,0.17212153330084723,14.565481117261387
43.42548908612089,0.9501526280658724,-116.87016016727117
220.1559954314464,0.6172187990122283,-67.02461672841089
-6.9050715961978355,0.21533317533634377,-85.75706029439111
32.17645386650364,0.2978806970858179,19.80008656209352
48.776150348604915,0.6863747915571857,-153.53473281315772
-116.40645860060661,0.563773070553619,-140.0018613288302
-5.570674105529987,0.34494545129343146,-135.7216558151389
-41.653440428866254,0.19330154831500113,149.5353137977238
334.3645354517518,0.3061630130373699,-101.28168778704246
12.929687679746976,0.3925646699625167,-19.516947427405704
-70.03184041891986,0.5155516880670664,-72.41951557342875
105.89976600978687,0.4088862997899624,-220.8339106711959
6.988984346210371,0.20613967380865894,-164.96577311709993
166.59634717436109,0.14375674921316695,32.8629452535695
60.0924765139203,0.037743833878877475,32.71366676591871
-3.6155656974790964,0.7501447056618599,180.89162510063713
-41.34668937310905,0.31500142013871146,1.9731512490223788
-75.45547662930365,0.7700916268322796,23.885506305265057
213.93270093171338,0.021227129234087316,145.29826975970963
-3.144257109410256,0.5243791984464093,29.64215190978558
36.36890745444348,0.6876812103292431,52.30213620119575
125.73141315915225,0.5233345913087506,-49.769319273803866
-17.89557783467945,0.12904681525840112,205.24871704545927
-131.21566086318035,0.9137605767714808,58.902311539920404
123.61515474209584,0.2684618902774112,-67.27869983991643
28.21267238981266,0.7956858970910226,18.295549890390422
-107.8436570726721,0.2600296926430882,-42.774534384314826
-30.797681079511374,0.46011151171180653,-28.90473347555597
102.68028386790968,0.4429214900632006,-28.66229198364939
-73.24100627482156,0.0859960935702635,-60.29530977870109
-24.899484909132198,0.29432760207534225,18.996209976649173
1.7670393787308725,0.3213487605201478,-20.57894454331124
117.78627436320119,0.42943947657070725,-143.57870633481332
-48.97249690050037,0.27149641129267066,-55.794987704771515
133.2341626486667,0.5431750801809445,-18.79906141663562
150.45040258152642,0.6967020700999591,55.309696107399795
-127.36585477078812,0.19599732760147537,92.22348692201798
40.47732807431855,0.4779742272208668,-50.192540122902784
64.00997791044529,0.27888101450721914,-213.8110506671552
-15.568288523495038,0.4718053918831512,45.792615215550796
194.5340524398315,0.3380044946011762,78.99829421126441
239.23058409626083,0.1194029275680003,82.41807200446604
29.682677702786574,0.03592305381394656,-53.11175147213441
-83.29717311845755,0.11896117265956108,-11.938413981109953
21.60792313695879,0.0992847196133978,20.820433855333107
1.554862549773977,0.8668384359082171,121.0945005214328
52.46640335359054,0.9770358780828499,-25.850659387904496
-180.52154734704894,0.0017666952678749848,58.28944969964358
332.97274889094217,0.21606977294482954,-57.48844099802053
-3.3501193978001784,0.6752679671031951,157.10900853136786
-27.14520422896756,0.6306853097250271,-161.4507466392619
54.308607430640606,0.24209870625161778,65.11593031613695
102.32965084443839,0.7563033349969583,-136.5371784883464
-34.406630757476734,0.846658110244434,-107.09899027616481
178.7801257994932,0.6553863866170883,160.49775001918172
36.89547154380636,0.8139010766594376,-31.451935516632822
-34.05234319746458,0.29953284860446505,144.20602292881836
-147.1502596200705,0.3121003378041224,109.3256689553947
41.2795896775038,0.6638152966552169,-41.5607102857159
86.40685410556665,0.4758060580254069,181.1846577587676
-65.36348312379255,0.042257871930389324,15.884029110521233
101.58817236846221,0.1864685390314459,32.656319843029124
-172.08910653139867,0.25231355690046386,-93.24258397240605
-131.64835213034775,0.8234223633683521,-5.913246987391253
-39.207748850618664,0.9066590740926678,49.86795689627213
110.01597823411333,0.26532320984772195,37.51383475972704
-115.58158885960594,0.7133658284015745,106.31249862759742
111.67003335794985,0.8605896023777867,27.015628328628406
121.52130655645139,0.6603279868392018,-122.01724688201058
182.1879042146764,0.8111023138699907,-0.8625680033404755
-116.34139492492378,0.29393586897837465,5.4265839921943
-100.59736453508765,0.7754607862297366,115.59087019134199
32.85048864361665,0.6880648042689345,-126.18268108299597
152.48749144368895,0.999657824874827,-9.875761386488707
-142.58595002355477,0.826445036178959,-9.107230126948746
96.83663976493975,0.6527520097651551,-54.73733227706972
188.3703765148958,0.23207529418858786,-40.62707692456049
-79.74756672055207,0.7710016928650297,-53.498114959183816
-39.806959981351596,0.3446128546076098,30.455845700297203
-102.68718641315944,0.9041737745788395,-133.982336199496
-85.54405031129484,0.20630019470424588,13.687793187600898
143.41720795401,0.1967635624940116,8.289937986493694
-54.09567608418675,0.8763754089825324,69.37166354767903
-32.387642052275886,0.2788509251368574,107.56863706539283
27.23221508037567,0.027343642416453595,26.99135636566733
137.74156184417086,0.4331229641149943,47.21022524112076
14.629865216705804,0.977377544246244,8.950615944663666
-58.58044519333796,0.34502730946341187,-34.056059901224565
-90.00247566652051,0.8485349811126273,-52.541165179515716
59.80761175345442,0.892043233225926,168.8820417932353
78.84396904895819,0.9209313109526649,-70.12542130745305
76.019318163838,0.07705379229246057,33.47038978826317
-32.75150242024446,0.4308093757325724,70.43505451101836
-95.44534941266775,0.5961327572385615,35.85704952452166
-171.13393576915882,0.3775493792455261,-254.1319827848496
-28.051057491845967,0.041319782026663754,-12.629758271966407
39.044252665053506,0.9037867055732723,-29.6627991571428
64.72961131128278,0.20918448527785172,114.23531724740535
-190.7713800245864,0.3710994749386949,113.49837995602347
86.10539165588543,0.2295794138417382,-124.9903802516231
186.16175147554975,0.45396796781908555,12.231305571402066
38.464916356624975,0.6270211944552515,-177.14798729315024
18.850775462090645,0.09946415675498044,40.329802273214106
-64.5365393626195,0.494706337194021,151.45811482796879
-200.86942929056158,0.515967387340708,80.05285825256315
-28.126550959798198,0.9538685364293246,5.607450509760563
-171.28747559866363,0.32088846657938874,-20.739765139881154
-19.49544789858392,0.2842011784157419,-7.015397975276651
-22.18208987070915,0.8079809969051756,187.42894696510191
93.49977639115384,0.8311560932240064,-87.1525332938897
84.55116175189798,0.5484028889626325,-189.62816004696566
132.4430023989741,0.66419523229809,-67.88272970046206
65.61246907142745,0.07278692374663764,124.8123372651955
-152.4694650337694,0.45406136750254844,145.83421659498376
-107.23208455585045,0.7683914880688675,-40.02872104818195
-45.18520137006084,0.9188050259187097,13.080864163469652
-13.282028886051595,0.13899007252591666,213.92671998132985
-12.86985162201926,0.49889496344891826,110.68395051661044
93.65018464787607,0.22729057638760364,-117.00401416785849
2.6274255747032735,0.8124237504347418,-19.299691863312614
-50.15036141950377,0.5836856447015302,-166.73392583564353
-180.25747215928556,0.14007953302603815,-181.4723601502851
120.78894677018879,0.014849017444449442,0.7368863721105315
-151.3091641555113,0.8805180462772998,72.0581942164587
171.9024908828174,0.3849206484664821,145.63454294600757
-165.79869060162468,0.741229562167648,49.04565838777691
-123.40266611960237,0.1626577682569631,35.419998828320594
-30.126552285301667,0.9701041197782223,-17.53287769330501
-2.384989149003033,0.19602631188690722,87.20933041627048
-113.01978897986606,0.2810707905193819,-256.92265451244793
57.55106727023094,0.17737216453892068,111.77791422683737
-173.5818833359271,0.5559734814689342,152.6457573430034
93.48256425872206,0.7346181960512108,65.94109194235315
39.78415497356293,0.21439070414049843,31.379407774310753
100.56607586794509,0.6006398875070621,39.580751038285875
-25.504044056615484,0.7177336010543162,28.860071112532705
-181.8369758258311,0.10020873428950594,39.424811008407204
-222.41463578317897,0.02858107028053347,-22.618971941157838
-161.58431575991213,0.3028082479503741,-42.08318249366991
67.49801633561681,0.9907051869083782,74.39273568738129
-10.775644569474341,0.866940817588946,-243.67078550217443
60.98707051888762,0.8950426478947648,42.67632738276066
85.23859029421935,0.5362098601926311,-192.13234976944418
-13.024178837680292,0.10962334122082873,-45.40896433620939
98.01282626608766,0.7960861015471332,106.21980716732111
75.17096397366684,0.18421151570202443,-1.691757745536572
-53.16685453766936,0.9852897793909986,4.958519083847119
7.631337332907444,0.5694980572913878,78.33081578522729
34.37904275994165,0.4475990443784391,121.56804054566352
-101.20154331572202,0.46483040557639765,22.513617919135516
61.02172703048333,0.9860139537067701,7.594594053643158
-53.117225717893255,0.3137295578868545,-35.54146099996432
-9.239133882492226,0.886855143053972,2.2059577020083605
29.927124115631976,0.24170990288126337,272.46357068735745
22.94374236986209,0.9068368651095035,-91.99276710111978
-57.07597486706607,0.029362168622560136,103.4503241141997
58.82683101289336,0.4471156464051492,80.63802276317685
-101.70695536944696,0.919111617019265,37.567947990378094
106.70533322233298,0.5884198330721789,-11.56073220777422
-201.04374172820278,0.5784923779171836,1.6431761062034929
-43.155784233984576,0.23904593035373722,200.68746689053728
-23.921704461262244,0.5603522841643529,166.91256859988036
252.98812123195157,0.05286237204630517,74.63742567626613
-140.9001324247069,0.4176403824613375,-48.55429729989017
-14.073081180572663,0.04823825118452141,261.8745107106148
107.61804362450155,0.248999815573953,55.60417403211856
25.003715534825478,0.6580234027752544,5.951382835947726
8.072871558809378,0.8899914236003802,20.771977208684117
90.85788057652226,0.041855888757346804,68.94523584063735
-59.65352024910836,0.6308589736166598,21.204634426036435
-69.45884064460127,0.8875371811147982,-17.570850101956474
-22.510615017944467,0.7619034622019989,-94.96688934465891
126.11776318236832,0.4358452964252344,99.20622021801711
-99.05432460193676,0.44301866384222666,31.216463971415077
77.95248444759021,0.8060298279095235,-55.64597694257428
-180.15892416074516,0.6573696252742077,166.0222815585154
27.1903184581125,0.02667247267072126,109.96680995915109
45.950731105542175,0.0660228794013984,-62.25996084147699
-80.09213351990829,0.0867843682768511,122.57209223679322
180.87423217787858,0.6707970740901321,181.40621863585852
12.50035072395239,0.6462236973868153,-143.44352703754535
139.75427519960397,0.9697374361619016,-97.63427859950316
-111.21143049003828,0.6072730304355903,20.046351217898717
47.88729301281858,0.31918751684679003,-11.744007539176668
77.33136115494574,0.8819540377029708,-70.77932234338945
107.76505843168052,0.35837707727165324,84.93937446125123
21.43638147278668,0.5227930316030196,98.07834979907554
-197.47108663328174,0.600333560052291,-27.660518360334542
104.61892641768789,0.7613959290169856,-2.5288280212291943
101.63510194539802,0.6718543349017739,-18.553128172538
-128.87540175880767,0.34685896021719176,37.05714534847771
9.23588313403254,0.568593097265449,-137.70586613897862
23.84926263397015,0.8563132893496581,24.779655710421565
11.129903954644243,0.30448185814853335,-8.065754881446798
-176.1551034835878,0.5046060634302372,94.7345937169429
-52.38453107859008,0.2967405869003479,79.30683987298642
-56.04245157134488,0.3134380520852623,-101.26041763474409
94.34825187641148,0.3477151183849928,219.51888555769057
-71.65103706146654,0.5044721744078348,-12.629820843441525
127.33117351508616,0.33749099367177104,203.31608687577415
156.92258796014968,0.6222707767923107,16.386306787097755
25.54381557673126,0.13366439380477002,97.6976829584756
188.5636686361788,0.7287852705718916,160.45944859293076
-52.29855553116528,0.6052123235194539,-38.267761046275425
25.525367028145514,0.8522790405461779,-114.0398048853665
-7.855034990487788,0.3733469892915604,-28.27689774202023
123.13044070924741,0.4544410346745892,-21.49783743041395
226.68159596719354,0.8710910973219661,98.16588908280657
84.33572268341625,0.7414121557851119,106.88361204600334
9.44531567844497,0.7251992288803164,-219.26878120462558
-146.5226281105424,0.593468284696317,-175.69861715083744
-28.081196554509653,0.6632014540950796,75.33806386547239
-154.7429425448951,0.7282669430111995,62.36468775092343
52.02372100897491,0.09128635874748159,84.14598198542618
150.44360719728417,0.07531030429794339,57.950626410942874
-94.99880622295626,0.5186839181037975,-77.90658800937614
-30.753582489253734,0.6012416345126695,44.09762893440752
-79.62110135097,0.628029486824367,-50.97076946885463
-133.60721750829816,0.5956806763976815,95.47974206461708
-20.440403507574416,0.08785029021463309,-64.60930022852955
-203.39983825103522,0.5863024615577154,-19.862172235981852
-166.3405084143922,0.0957632936396674,45.441926721738355
-114.12247290946947,0.9147908030442525,-34.68917702342164
-21.395089783935937,0.23350957802955263,234.1005928869138
97.40983030969866,0.9312890290109845,51.701864478213835
-19.565507767678632,0.5799760105775843,98.71191166162289
-161.434861213648,0.08768440178417092,199.9029158135508
25.261126120900947,0.3129235838144898,61.34906788529396
-74.57432410305906,0.7557742998583626,-64.99255672066957
5.9429657330616505,0.7772584750159323,-127.03533537477188
148.7538311972256,0.6015667579277025,134.45569502368684
81.00565022290884,0.10988120343075847,-3.920586059152173
178.36302918304133,0.5004750868156653,110.9041274137041
-39.72163336446795,0.7422935698282458,27.371346515409222
84.3317465449866,0.8187560662577675,49.6978517603749
107.2003703896675,0.6630262281784548,-99.50278174345219
-51.593960175910944,0.4330918070263483,-8.080381046602069
-177.99351683709722,0.8661986419971769,35.33046461319157
82.55330928575908,0.5662681113614647,75.63700680967062
164.93366366718027,0.061677155128648575,12.212566807671926
45.124980371933276,0.17582208457147364,130.3918805995135
-63.69450565039406,0.5715525057107709,39.54484312623981
140.4410604091171,0.3402757245623348,14.622164778400778
-131.75509829546576,0.07634949713968231,186.27861774051223
-92.60885253973355,0.255354721061556,-28.356479659280247
-215.72838733926068,0.11218280780776557,53.70654368047341
-144.51342132674841,0.9873385164710011,-88.83101181954065
285.9666619532224,0.7080121844132208,-71.44254629360749
264.3705232270129,0.7347989250493626,-101.64458087006246
-135.57238841674842,0.318034454204699,83.14535473778759
102.93625560196024,0.954395303161851,89.22506949776616
-64.58630422216406,0.4551363070967199,-39.761490474653364
-88.3768094258778,0.41604996216433243,31.845649995719704
30.6386332605597,0.3895400248078358,75.68084663774862
-92.48271113024859,7.661667277458761e-05,-75.2567228117872
38.453032723109594,0.9625698417091566,-83.69006603256234
23.06903559797187,0.0003014003372240337,29.716106543901798
-36.14958015779794,0.48730003062756266,65.7247423919053
-57.49559948584737,0.09388235201222928,-17.32083012485413
-75.01280430987242,0.9305963157514208,-157.39352892027793
-110.80865852961072,0.43857677595551825,-64.98772060313371
-77.75113675097842,0.8770031877934164,-87.43867620803894
-199.17357391703717,0.6971516991742457,-50.60845813683281
-7.601049714561564,0.5498149498911785,62.13642942655206
80.39561461350107,0.3790290641456463,40.11379223176294
-236.00302148041203,0.6281750443793187,259.6837183822837
81.30607685749956,0.7201172270135106,-77.31480019544051
-17.695049427212528,0.5487647297160336,6.097128384903946
-20.59142472246122,0.687869961219056,-14.323778056621162
-13.160985017635143,0.6039103166053716,89.58451343471735
-100.08608815271285,0.7631598059842442,-24.31898800386289
280.16030568436133,0.9359767223234815,20.40958346400564
-23.992476016643927,0.1283049198601055,87.48349235491006
32.8505172646735,0.5153568220006769,60.60285616600365
272.6374042542269,0.9791545948349979,321.408466386898
-113.35010918384467,0.2749920164354219,60.886807115578414
-34.78002304189574,0.5629000720158592,255.77695657425483
-16.385093385451505,0.6812675727387241,-100.46851548648206
-80.33487104625159,0.060450296186371544,-33.1265305760373
18.77087581387755,0.6625083082177945,35.951113806313764
32.661557175134924,0.25567572547155204,32.2654718240277
0.5585346016173405,0.7683159199107751,76.39959424995035
-198.53146820277715,0.7000554968004712,7.717165402499891
-50.024866713321295,0.7465028568421479,-72.60906465479393
42.97977034672814,0.13118754673017752,57.7004256493603
-28.56011628755912,0.9843594853323724,65.44684272537413
31.381832641217798,0.8094041843026654,-124.50872616900858
-82.1337254167284,0.33037579286672825,-97.570717700359
-113.35094205296974,0.3890964136422429,1.4226159850137088
-159.3203740840294,0.3463418002208527,34.6300240838686
47.772946744422796,0.13931961574648277,145.12164513450765
2.8615364638012357,0.7383601147857932,-27.15334311269476
2.9593643526964084,0.7388698623154801,121.17708611665763
-149.05366689327616,0.07764060482684643,49.33087098201809
83.3748284690234,0.025929512003548316,-176.28535452459067
-186.2837993246817,0.6656357505691514,-94.28248806815593
91.96778253416647,0.3288726254018445,74.81051271082167
239.71948703390566,0.6458214164585256,-156.7688020445884
-23.373780253563726,0.12051224650599002,63.2853596092404
-13.615394307297962,0.24100659391225487,25.796957891968024
-72.00071514493607,0.1077255912305185,-42.8677165296009
75.74218186456747,0.32923016047946274,9.289512777538004
-106.80523387727578,0.904465326105185,211.68343271481177
140.29206676211308,0.34961602843595396,-65.73498475548895
-143.3331841731328,0.7979817010963544,-93.45680560024951
222.83486042695353,0.9280489610850379,41.88043447512614
54.17065104807581,0.9914291845960325,50.9456434074581
-140.28479657773167,0.5717867145181041,-8.863541950466256
-63.632229153893604,0.706135844671724,169.85347303958991
130.83500648860107,0.010622463501986479,43.4618959006064
30.574295540667407,0.621998126831333,25.499145855376327
11.762789402190736,0.5828631453815477,146.74701952538737
100.26834978149168,0.2094443106788969,-55.58139784922403
-108.14403471680947,0.45202918059420283,-88.41438146168093
-206.34261943581902,0.4847090433921306,-20.621388786948657
-111.3591149182868,0.6429954894240508,190.58707701124285
71.22910591243115,0.9960593955616676,-25.118941753373612
125.9608725333345,0.9176964705420777,-53.806022980981396
-30.471827420432827,0.28201502429193936,30.11621866647487
130.80652386890526,0.5903840092127272,-204.0637045145422
95.63485423463122,0.25688757983482746,-9.016015483613472
28.96925163827629,0.6210321203631932,60.911683513183824
38.34053163839256,0.4782939878987763,195.07152177547144
57.35603569530985,0.045703653377626385,179.61339873531796
-43.457357976661015,0.1472252870076356,43.79867355238496
-21.101580742972985,0.6085604485447873,165.65845495967903
-83.8508595161054,0.34464153733192293,-34.79288593722515
52.62179585711312,0.7842609752073799,80.18189486784038
-22.912574190322665,0.2029505075342798,96.25165619223372
36.00893829775295,0.9597408738995786,-92.99361214738711
39.69650390302646,0.2603923961017549,-81.38374914042068
66.19326068619846,0.8765553037988522,-128.1291108115945
-14.104037514193971,0.7139000734330254,-99.47315574196448
-15.236606723996058,0.08112892909461333,25.837193747395702
-67.90442870376124,0.5958968110385421,11.858332544457326
84.18758215605199,0.7591472702062424,33.14646003773279
-201.76365166371855,0.5275418185545202,-175.07553183675546
-152.6228427580954,0.5645898934090526,-193.48264601008566
0.11569189383872952,0.48941683970007444,0.8583892288701032
104.78354823554932,0.005237152119830557,75.52929957145759
-120.18754415514368,0.7941366687678991,-36.75805552585223
108.3744243408192,0.15108325449084636,58.2567597359853
-43.537525418881174,0.5517136660674667,153.06649155202697
-70.97527535537347,0.6325726024933807,-45.171894836812605
266.4369706142546,0.3593841176378081,62.26195217678391
-40.27420739756991,0.27370433600918675,-24.18024272737735
117.4317442495227,0.9318958486701523,36.06709588707975
93.16601197957579,0.6518831416579847,-79.24277296095951
-1.5251062453335682,0.2376587021858998,105.71928344280704
155.8801922647698,0.050004314984834486,-55.66857452662569
104.90100290644166,0.22332358431376975,-13.369326138586041
-49.540080713563015,0.8219338010540177,-21.644889892308043
162.81812349440062,0.7815097509449918,137.80115363404852
120.91772399332008,0.5524278661733265,-55.51294978532768
-9.644204928199454,0.8005738584842588,42.5973844473178
184.36225918222522,0.026733840540798193,-63.184372833962854
167.51374006216693,0.14202645773471456,19.04006639902541
-5.710154197503892,0.04493668951216245,-173.97570490645802
48.46085654827918,0.8253025792208655,112.71453151593025
-231.7336980719398,0.8542003933327965,-42.24520088681607
116.90878490115033,0.5349222228115713,-96.93336745032319
7.631580123419729,0.8586118951978775,91.38946872310154
61.652734238444,0.4927313945009073,-3.0690647049696613
-1.2371170218385594,0.9868260854790161,-88.92919838725135
-72.72346635929841,0.398572814325475,-3.6658456166843005
-66.10840942943344,0.25635287638549253,8.716417522576716
29.075406474071038,0.395021688234921,-11.171768819546275
11.89214657962412,0.25272930701024143,50.72623537377917
9.44848796749967,0.2667128597137881,-52.05907112534859
103.09999729267739,0.5689525007310036,-120.1979666773978
94.47608865244463,0.9200877538492961,-132.52274481904723
26.81627509354907,0.843266182997383,-67.24806429323384
22.442227821844405,0.1293523348408654,-14.833758883601037
79.05709653664618,0.05313316581860961,-46.82686021879673
122.12284673233897,0.9585189766978087,-24.6140971654307
68.91451427935586,0.021402591928392556,80.31186900111994
-40.9758852435409,0.16812601660622806,-4.549149875487726
-103.92789294955307,0.6069477750301164,-165.75287175815745
112.8767260877441,0.1953283885729613,79.59794890007089
-70.64605412191008,0.6000106656900311,145.46469747264607
32.23356662029923,0.5451005858033656,-180.60658718600226
55.96340475232891,0.6167477247891041,-36.3813796882113
106.20728958673304,0.3315805633626806,-99.8811310485069
118.91975256928706,0.18753747143458377,-10.514420664186567
105.03360173606171,0.7575798564985005,79.76367825695004
-82.94931281707552,0.6530258643947794,21.89409929076357
0.776225346868317,0.25232690311984274,170.23342247876317
-113.33131184236889,0.7897981754417469,22.68252939328958
-42.49887278411965,0.8378532378319442,208.85567453289738
-92.9683090990983,0.21134858251692923,-54.776025199142566
-126.17896250975062,0.49664382035510046,-61.126062088506636
25.363851788522336,0.6648556607392473,-40.29343118500092
87.0598609923683,0.3072328890743089,-88.42653099996613
15.673694223502382,0.00989528069313439,-57.80559482542521
71.06193919771205,0.5017646394556651,-30.635929031012125
26.375540634167393,0.3223482560309099,-3.8223180371978893
29.197213435858078,0.6862961587875741,-84.8124637175175
23.785721631813264,0.6955783915103919,-187.81524461902265
-5.010640163856326,0.8447410856840196,-32.615533463161455
116.60208938691672,0.08015820540150964,25.12258562792889
-96.35079612022388,0.3460549955652412,-91.45707441349016
42.12086866805757,0.3272308627479832,-65.19462706285125
-2.3444007888711904,0.3846378820801194,13.15778346215512
-19.349261437718404,0.15947278729098913,-97.02965757292283
122.57526888276486,0.4937065117582957,2.0997883963566135
48.30402179672908,0.6679822567717286,-26.084613410177187
-1.4658765139460228,0.3579953463998339,11.395445920070804
-27.34488025910852,0.28562064494806916,-41.22056993535094
84.25081362356775,0.4767092916124829,151.6537510740237
-132.79142735504118,0.0371002804541366,-54.32435616772757
49.277300212336826,0.4287683395437224,209.99767734120925
23.761427652805015,0.5915301174002064,-103.29706692560991
-72.84131074380598,0.18724055041655552,-34.49268894916447
-43.19127873536967,0.338910850859816,-147.3550149676933
-26.73547945274411,0.1711211039190712,20.06885849476007
-27.49140011160918,0.5064719829926486,-124.00209616898361
51.81507813513152,0.12153763849195787,158.2369642016734
7.99652914741103,0.8720052346633251,-21.33276082347412
177.63135117117847,0.4273063255611661,4.6888807964516905
80.67415886324214,0.12186374450566684,-141.3078097916127
132.1495274144682,0.6947937525386513,-185.92689425814865
-71.14489429759827,0.4639679978792529,-65.04682637261911
120.58517482938542,0.46546630446555315,104.59898891184642
-149.90999020334448,0.03407292666085637,110.86140657104593
-55.68904360508292,0.6529365132623668,152.1053976937191
121.1503282910815,0.09409007112509815,135.98780850128688
-61.73952723541226,0.3343068681418029,66.03664181378574
-29.681756652167756,0.5882878764403578,30.237707875230193
-92.63761873600976,0.29682412713588624,23.015859778998955
71.62286668594834,0.392193016369233,-33.067049830804166
-97.79117802665392,0.8547090291044461,-122.35671814746168
212.3049655129511,0.7730089282877929,-107.7307999559682
-138.65388174579178,0.1561646401921224,134.60215734898006
-184.61376289587798,0.42102068759704814,154.05793427866087
136.7030910255346,0.7800314658780214,-128.29598994437427
207.3297519128776,0.5272780486324959,-98.70289671740903
-69.40214510519766,0.049093523187235366,7.247246047157926
-96.64506716039692,0.9545502051311721,-80.33981127220862
52.25167189313565,0.5158493255912435,-121.03722595924027
38.63184477738863,0.4171228036146106,75.54596103753657
12.43538798230961,0.3408987636090265,-4.067950675386942
-109.32505680371172,0.49496757179026374,97.38709124903238
75.8546562190303,0.5141578806348427,60.71337956866367
212.0196021789293,0.7328179361357577,-65.541201582739
-82.50039711245178,0.13362843782660916,128.64190901811017
17.305344393481217,0.2206650231892765,20.01425824891579
12.397604134927844,0.16216850774385194,7.126397189901593
-59.64961186246632,0.9565969111037708,46.31029568420386
-240.46505148198895,0.23029268497152988,87.3016783797524
26.79737225762185,0.9215628396920483,82.23861166398876
21.032750103402677,0.528113790085046,67.27218955591107
56.89820791678382,0.24830515422575572,-125.5930149426502
66.13105917929052,0.029602526281680475,-54.30093919092446
11.705009925957077,0.5566764944169479,24.747302719040697
-19.41203130177605,0.9227244170815704,10.27161072284913
-28.721095631505992,0.5901424341328909,-154.4759654791818
-241.63775126967423,0.36791201039385224,110.92162153941575
56.966037938747604,0.6284605320177543,41.00860271731063
79.38425862551796,0.1368317035582537,97.28697397539229
-85.00127293227303,0.8152284318327956,170.80230578439367
18.543162183313417,0.056438530299464884,-195.79656865678618
234.7665064354768,0.16673948634464897,-60.68209228391649
65.89164659835481,0.8573087372333579,8.073838570465334
-219.61261780425733,0.19672455420859303,307.7646517226502
-99.09741273545123,0.2857011715376274,102.34137744717924
137.1665972051392,0.6641014453616199,-28.44292676298299
97.3761625365779,0.8937485010053554,-206.4103673946397
43.349673995846594,0.8613084146077291,128.81496109717725
-7.714907629614336,0.9196187586824677,-141.8886478392092
-52.86821694298439,0.49546645252051336,133.11551008811736
97.06873657765499,0.7351662806224997,-27.532147991740747
100.44202778704867,0.84943858532937,-30.489071716051967
-173.70194176261907,0.9355143690180934,-198.6608722336493
-29.693920348662395,0.792955395369132,117.37396110600416
70.78430363584852,0.7890485016175451,-171.2873203435737
120.6441774843832,0.3677326770600946,117.71193073190267
-37.05977105202912,0.12273710634943358,8.883023761521583
24.327453970023694,0.9955612474954951,11.958178092136968
-62.2474486547389,0.5453921158235063,0.7730212931704215
-11.679078050241664,0.7172499291796302,-119.27844635277509
127.12429169085229,0.04615188904943068,16.82875738461774
-5.746049484124798,0.30659525069899307,-79.56942876410847
182.7442388688708,0.9933808632478175,-7.637654264912584
-21.68825711270105,0.3165903850949078,-240.59310894095586
-56.31164602607844,0.5803503170901365,12.53981370396996
-153.53681941479766,0.9118511349160231,244.53353895984202
27.11839229249004,0.7296991339657389,-25.47378474467236
-4.14759295385714,0.5118638588782525,-122.34775203183807
0.359947930695755,0.4027663113787442,-175.75325744281656
-299.60149223803745,0.19022728811593903,90.69474776984599
31.860962678805194,0.45408555233055137,-250.13394991975622
125.23593941022327,0.7475956146438584,271.56837054915474
29.682492417571122,0.4826672951990205,45.1221834536266
26.76073677281418,0.9236411967267851,-48.054507211170005
-48.97312878723488,0.7848595944748541,-34.90212487615516
-58.7651008371204,0.0014198931440841944,33.72320970351591
50.191747374377414,0.7653477587119437,-140.66022152318092
-6.5832908622075665,0.20611656507699472,-78.71609380645174
-71.96674100493603,0.252266298674111,-137.02854278477704
-30.250885067616167,0.33937302961744975,6.604395517702728
41.31307408112187,0.5415616055997721,1.77210899158026
37.1493831636675,0.950070227819738,-10.851977159962997
-76.5573301173309,0.6216404256197401,-96.24832566647274
55.57446200306787,0.7518859788782577,-83.64601650039984
7.487033263274452,0.3999927158896066,-26.57929837475013
165.02806296939198,0.28535071015322355,-78.58619116528405
36.69880952344964,0.2135118170084458,-112.26725576756205
72.39487503491692,0.5062774310948069,161.48579002937007
-38.458202090435236,0.3311696169193705,-95.71638255881165
-162.33874967182183,0.27596733332889845,-54.72315540517674
173.113712548525,0.44405323076925807,-156.5095113489012
273.14126083201404,0.5610925228641419,261.46052606530225
-199.6214229093521,0.3235501569249811,121.82670400296638
-62.29082283313673,0.6181048645290015,-28.483873996370818
-146.38681196845255,0.7577605814113183,-137.66870875483158
-5.696678945363089,0.6379535531919504,69.25591445434219
50.829217593263046,0.9335586907117448,109.26910742759965
102.56050342835208,0.7348411127414493,-10.715205582421024
-188.78219916950854,0.7799355394075796,121.16413888063127
30.35338703653931,0.4852476510566073,-80.07255683664032
-50.59480912403058,0.36640063761719044,-43.23548024778031
53.9979104873437,0.2924312436475408,122.6200127725912
13.903178901346985,0.24887549718443747,203.2674148710836
-148.76630616987643,0.7784528996597141,-141.4822163742527
32.8695719841047,0.739493624720084,-74.1944410902141
0.5658412038984362,0.7661146394542002,-42.158402777933595
217.87838866899506,0.22864549024060044,-49.393152138165206
108.87258416496026,0.9755118914950826,-65.33652736328511
-76.06051789799598,0.5545249114203102,-20.09536259805319
-85.72512045410228,0.20784252765781286,23.472714037531492
-144.3859186156687,0.9704367615184025,33.193969297732544
57.05827680405007,0.5948746361579946,9.4402982851399
-93.46190577030153,0.2670351333161881,108.41157780917239
-8.27297176309824,0.7000235819704331,-0.9361156493317186
-90.71832995583449,0.9540951521530312,-79.29571193510179
150.51063545531798,0.15349327080215802,-184.9563487180846
-103.63043644169242,0.9093204889933376,-22.442124291197942
-1.4061162404230754,0.7622043942652114,-44.6534323645801
-158.92485451356941,0.7736203358013408,-53.1455294424689
90.30574553492185,0.16136586542026565,-46.42106020360737
52.17968936881155,0.5184032483480311,-81.02486870921028
72.15199520441294,0.5851017356988027,-92.94113635843316
158.02456824137104,0.17027530697044835,46.07117203595219
-100.28458026287403,0.35637633649860867,39.97371466585442
91.53828613062122,0.3870435595395555,15.365953830522312
-56.617114188507244,0.7561625838745945,26.679608130156314
39.53865811180768,0.25371641673879997,-86.57366276928185
86.44524660488815,0.9356882326402691,-69.75080990139507
41.681562891285125,0.3207767006688559,149.2471940035645
-11.0930014287197,0.441826908245623,-50.32478392073134
135.20185895232206,0.899936434031143,-67.07538471007662
-16.50051265107437,0.5586923981366858,131.7225065380939
-184.87970236154618,0.8704022430730978,35.15857929597357
13.954862195208742,0.32091050051199776,49.42960102883468
-52.471895215931156,0.6105614311951602,-93.07148044011628
-97.51983729122948,0.5194161464391723,-9.931025748850002
314.57942561084144,0.9672301470498164,-38.52739740163935
94.16045189998917,0.4300367038435331,51.75662028670532
83.70161315701979,0.8743834351806086,22.147134472439006
4.798856056662123,0.5982634479211797,178.55708750482577
190.42425482363396,0.20725320938084557,-69.46876137611002
-38.00119754502599,0.6610389040002127,-18.141275837136885
-134.88414458222366,0.6424367752783627,23.416723511177754
104.44223087810963,0.8279206450348988,158.43313672170189
-102.67628093243466,0.5046336031309439,179.19065297157186
46.89766984476076,0.4243546570536282,-220.62326840346302
-88.69367974833114,0.601991390742647,165.8807767098673
48.513080831063725,0.6099606019172902,85.06819828113
98.75310446101098,0.6377219261587102,94.31386661247623
-102.40525724902332,0.2302936750438913,-189.06548284512107
-120.10131086683494,0.8797913304290196,140.56057294965484
-2.9340262716073666,0.5545264493132952,14.534998423997802
21.784843244131125,0.9735462608099164,21.992453916631344
108.55966021464182,0.28841133452019085,162.38035925284996
25.01860201724177,0.7054845719010905,97.03257822443362
-10.845303822974406,0.9974097521984931,22.33445276552872
21.60771649151782,0.562015099915733,21.069139110627162
132.99579398719712,0.6037489342848732,-26.1797262690028
-33.56008110879124,0.934623197151837,15.981806341031831
-49.43953236747109,0.3761769727400749,19.827927435164707
-22.889520665150073,0.20858415660402785,-58.999743256589575
-87.71525777553971,0.9424448055000542,174.52705901335875
56.65605685466822,0.0037867764282003558,-90.8262082732404
43.20779216478956,0.49762551729486004,11.53594216926374
131.85100753209912,0.7509551172800097,53.69956627257755
197.5980847114011,0.6241905758699751,33.04724200694818
44.27274295095368,0.996682764214178,134.69227171179986
5.577974114354841,0.36763691704059365,-78.4773396671751
-12.840527601585247,0.9518989174692494,-134.7404411066911
171.9188167998662,0.43944855991735654,83.64043101389262
-55.83624153496193,0.07158845678736103,21.137394458186865
143.37258069559144,0.1830991602365406,18.756374991664725
-112.47355940582634,0.8097057150606385,101.32782061846018
-218.5669642099842,0.5187582588989748,83.89949368349073
107.77803530337206,0.8789040558992095,-66.6001099758055
-68.32488338258783,0.3547343734554127,-104.43226222715931
35.88186013571719,0.9117472189715188,-119.13860692508929
38.91379998227935,0.9006241552296825,-10.80839623500334
149.45624659804974,0.4008782310861213,-10.056267419851107
-38.74482641747824,0.2826021885681075,-136.0674157245257
-51.51927677575815,0.43260964308703775,18.58886960187931
46.54243938819522,0.3121325996886428,3.7401701585119502
-148.6477606771122,0.31392161626716286,-35.510035134965854
-87.37302531633148,0.8646515320092033,35.63740327244131
40.428438848432315,0.9311587552940859,86.61879301541401
-144.019713835027,0.9690389969830995,-1.383401818517363
230.5048495995325,0.6980491676394878,-221.37955573100982
-63.48481071680682,0.06294519847463353,17.03503805159425
89.4480879593834,0.39712007678561123,45.766405056789104
-170.83765705867776,0.4809353465940378,-16.059905954720193
-144.9578624266962,0.9288528223570724,6.5327068278584015
85.60643057286661,0.04429752584563529,157.9497877381098
78.53023098923688,0.6844700286950469,-129.7766927798011
54.73660608432568,0.2545257449093984,-14.993988238293445
-10.260943314497158,0.14692510282073268,-30.516968831045393
33.49974194168571,0.876994450816563,39.48426750969601
22.74021329216698,0.9054679484754898,-113.72686250906618
9.508778736314042,0.5945306937983582,56.288132880599186
-89.13212592168611,0.06122538132153832,-29.09341941950181
-17.06834435411967,0.3831744999468796,-8.134180727168923
26.08096534680374,0.724450417158661,-108.37561168054253
-65.41593217032752,0.6354040586243845,136.54501417027194
-91.56435133735204,0.5632747072072397,44.91722824262878
-1.2690882384171804,0.6217194477052095,2.257578057565735
-34.68561402006045,0.13913860551457868,-70.82824255881758
48.25682289230828,0.22106255104070494,-22.14383965115211
-182.90950034649526,0.47650668063251933,61.14783186299603
157.1334833211486,0.8895907024479427,-74.6825484185791
105.5929549078561,0.7076080398380216,152.3031670173832
5.1777770605133355,0.5110783529022023,-98.21386397004078
-72.17351487121798,0.1730417374970168,-93.41512984516278
-92.22776302192092,0.3993943730905115,-23.378872636577704
-16.285888745853764,0.16054546265676373,-55.0758152494399
-90.40827170487977,0.05030484472028818,-77.18975213183906
25.429956557965994,0.5611792718395066,-111.93817211966373
50.97052876628968,0.17712356862518264,51.5763719807564
-12.008022106139151,0.5352559446018819,77.028311465158
30.75107274929848,0.7049349827061376,-18.286501398834368
90.92962582245745,0.25554607675108576,11.591918165777349
-105.42893947274496,0.40922736362266443,17.487446184848494
-78.4583882097045,0.9783525048900422,-72.89599312193727
-16.83512645393719,0.30437903719673887,-184.32475634449412
14.153311263052915,0.39316878128846056,-45.50601943033355
-31.331080875718904,0.2742033170003123,15.084786272838665
102.15805412121597,0.271642237900235,-126.28602467646057
-94.40369168749723,0.12597921132199597,-107.54341818260569
51.27171081972902,0.6921810529687037,-24.855060499671154
316.3966359307684,0.7611867635858752,-110.34178942724984
-116.58024267403202,0.12647739857832008,66.94537805693014
-86.3634939144774,0.013905266661218052,-183.84863415385044
-24.756169374066403,0.5746462081688817,39.47495328914899
-61.14178641438283,0.9201244947811987,-37.37897925526894
37.06405231767188,0.37048935030028873,51.97758743910538
154.10198065895537,0.4732775485744696,42.66148939157807
-144.0111642286364,0.814864356795702,-49.26867072588201
153.5282831468001,0.24529326133097995,-241.55415416024132
-159.97884696748926,0.65150184329688,78.97641877697868
-114.55098653910719,0.34920734426715294,-190.92774223613637
3.4334194795220383,0.7321620665388449,146.91270683869894
-98.68580050022628,0.666499903188854,-151.02283025859185
-48.19344313424851,0.3080358375215385,10.270948470249067
90.94702057283804,0.8600214324798588,-187.62370071248554
147.50398032278264,0.16289193089036424,79.97885156155154
-36.44515315744219,0.43820388763683726,-55.38572561511904
-80.61164048626635,0.16962490473607938,1.5120273602315304
14.210299761894374,0.5486293357060057,200.19089212211188
43.980364964835836,0.1832510299787894,-280.5824898749489
14.472661110848115,0.23769449277957388,70.52196187194755
42.47371973924349,0.5955544343544354,110.57060578690493
-107.52684789066605,0.08512353216477808,-72.2966609628718
71.07961046106225,0.7662636177626233,-108.79299073695066
-25.69700530098322,0.42809904729446635,-38.53315569516085
153.37739751596712,0.41716045470339935,163.05954387488268
-107.15712130651119,0.48520743712337033,138.11197278818042
-76.33996964220337,0.929783426030889,7.353268264791213
13.457578133692834,0.7207010720862439,149.57827496435922
-142.26233354994557,0.3594628266465758,37.46302765375062
-45.23293834420775,0.48918658242134816,77.96508426987712
