59.46609690208997,229.8299498441061,0.30703515642044066
28.758037464282012,-19.578046654160765,0.8364570498641473
57.98723748808173,-44.1191014709779,0.9826755770372271
6.22247795553702,106.65942771662506,0.79705068192016
211.0960498220158,-53.542748057701786,0.9278403859695347
-195.93487806326445,29.63650683171673,0.35384919379147295
-9.217524543451349,-24.797337016654403,0.7779726467013166
7.362505242755146,221.1346705765887,0.12678867004869376
-15.795896606991915,-98.6633162861924,0.32111104259877477
-120.27125191981025,130.6193666630727,0.2727384626944238
0.6248569240572611,54.325052445587765,0.2229629511188025
64.9431119171941,-5.5051377285665755,0.2677846145494762
-91.5794071442316,-12.231561688243856,0.44920738539406624
-98.74993556624564,36.99106751936347,0.09481090299116268
115.3182728759911,182.04085283655067,0.5970855861267441
-62.88049233108036,3.493893574435488,0.6181576111790705
99.17850651974189,-59.69710459285813,0.024223363639175766
-18.393636274455545,73.81277400607024,0.8727174483078246
87.48730580897775,142.24833884828604,0.5973405771988642
63.08388352326892,70.35264789443664,0.7083557748880089
-56.27700353309037,142.65079706649905,0.22519278870474546
5.7855562225997375,60.18717949878657,0.30469484144524595
68.8798250730049,76.87801543966347,0.8339423732924097
-3.6187139925748153,48.03531319319026,0.9982104203213215
-93.49364115465146,-240.70154819381426,0.26122213881284384
-120.30833557427543,-59.41613168775061,0.22293161224536273
-194.40871535528322,-116.19863205826036,0.1580540432423586
0.24192014012110696,62.86077700228666,0.7911378566653541
-45.47177770205186,55.99971687519829,0.12741390343826065
-22.75591562999647,-112.71060885780577,0.9648044230422418
-46.885013604689796,19.53494136556149,0.4677038981749988
51.80256908528084,-123.27957185185304,0.8352893898373629
9.94509734948797,-37.59382944645745,0.8226248020036524
3.704424454556396,-3.5466523158403844,0.11293910923071682
12.76384420196891,27.13570739466186,0.9718285425607814
37.85395262382314,-95.88114382971152,0.8678521042988226
-113.24666273865405,-47.122703899605774,0.8278332143711387
38.35990621880542,-66.27199487207679,0.40404168805340235
133.58224862373416,133.8458435364415,0.6869154877016974
-190.02240540751635,22.553363525952857,0.7807102420940156
87.3725669636794,-124.9179565694545,0.6975059340733436
34.804583016703624,222.75899020115904,0.8420227510234025
-143.6935051228108,50.3002596599353,0.18365359533434034
55.1670952641637,-124.43146963517813,0.927298261133353
-0.5432557430696667,142.49387276412065,0.8370854588669008
-40.542795086702874,-15.444868752950544,0.7939930832252308
1.911871233085229,4.33805231249669,0.7751617559707646
-115.3646632760552,-21.96433310951508,0.6918381935291146
77.90144871136793,-86.74469782053608,0.675280064175857
95.37516341682245,-24.1998367944698,0.41519640173401096
-114.65047466741869,-63.55540702622504,0.9325614032552952
-106.55877167574275,-64.71572165755045,0.6622485651550566
-53.95932537346948,-63.22603840771468,0.95419339056123
188.45941756204255,-87.29939098656324,0.7613665772933944
9.051387782170815,-19.382856064167107,0.22569951202481808
57.00000930460085,22.849295564910214,0.04553009916124939
258.86969084489664,47.628233904066974,0.7707430257482637
124.58739753154569,-35.811734148958756,0.3274887653525721
75.80770224549336,-18.629316020648343,0.7745625300078091
-14.101195297172556,50.79614975305358,0.8684778401383856
-19.211502668876086,-59.6192620604112,0.08612242297409023
-77.27348252362131,65.27651004840799,0.6664708791113528
-16.12470501719827,21.040798609996134,0.9634587026670733
-105.057598762666,-65.08638166048793,0.6961411436434523
-39.62853096316081,-96.10844031068459,0.1938329922877262
83.27920062431346,93.26480743767773,0.6572478752460759
-5.688599547890394,-17.378775957778732,0.5966321898692005
16.034329026606205,128.741606029467,0.7093137579401501
-126.58191477082835,-30.795652516467424,0.8526747973668426
186.10814652657115,60.57405138600787,0.5958424873020614
164.54378299575183,18.417669730401094,0.37489980991879934
-184.4893186277464,158.92209510128143,0.1721339208220205
-96.76586675557054,108.81452279796393,0.16788476831828458
-97.29441460632792,8.46189497898027,0.5241259938324299
-68.90286672171483,150.3444328940935,0.5129272345294734
-7.002745114561172,159.47421359107238,0.8196826825648572
-141.39062885716015,-35.227140711776045,0.15815473780991396
-87.2948652535497,64.55324969774027,0.6380275832716427
-231.42401119994608,-52.26796608241424,0.002430163853447409
111.77339932022312,36.52502222665848,0.11814262499552086
-24.00380235824121,-118.07214861922195,0.9449544446866354
149.33822852967828,31.296173159543834,0.38066673823187225
12.473573741922642,-32.45982626795574,0.49936229699163104
-25.67269712552166,112.45916907282287,0.9522388156032751
-0.4452235904299136,-108.10692417804822,0.31747190909165857
148.1551659986703,-148.8770749531824,0.32210261722083366
-56.121634260440146,21.470174136354366,0.9948516417812086
216.91361075962044,151.85921691809983,0.7953773233432181
-109.23435353709243,15.025887491045767,0.5880512944877686
30.25884395131964,-71.58595261684155,0.5747309006229984
83.89571360284924,-28.26283517265083,0.4594661422043762
-6.084150540125144,137.19116779262572,0.9312697580202042
7.018782250404904,100.81061059005059,0.13144275766274627
-90.04872726352625,130.39821135696374,0.3182304806475815
-200.13648560540983,128.86164876195176,0.10657059457948181
53.47565064433076,-51.3680611139809,0.7383591980595207
-33.61507006906231,-65.58877426936553,0.8340544307729505
162.235264387155,-42.03064873109466,0.198925861061081
-21.1370050379793,-194.97878621067076,0.39567843447120943
-4.852085093842998,-55.02508632740698,0.8967514723045978
-43.1299544061461,-44.300139325314724,0.5361698700485212
-159.98998044775593,-113.18738507648365,0.2674459520694501
34.28002269106488,-32.475074231669424,0.47524619063842455
-11.133745401544571,-53.26117031243089,0.5455472962641166
-140.91217801120195,9.181358874941212,0.8797721166520719
3.361537908395049,-10.260323036573862,0.5617132725870386
-107.25048444959782,-19.75878734378141,0.3030053690489689
20.253893572450146,90.43700694192573,0.25275504055501374
106.33345686431348,9.00904426438932,0.20268067439066428
52.64273101724576,41.1801122669828,0.25830574782921756
-25.15264467037533,134.32356249163385,0.22944230668805254
-101.35046161698939,-168.84969598134523,0.3002257819196166
-72.40076051158127,-87.10454735947185,0.6541016317553331
-65.75506800294043,-21.21549381309862,0.7017106896334111
-177.0600458281159,98.10605093990128,0.32507813192891954
-3.031353471674479,188.82896278531314,0.9976231403586049
-5.2552181023879685,50.4540226717894,0.6056831558252154
-66.64515647225876,-160.85622657536402,0.6048206416426068
121.07392490293452,6.315599440303334,0.1981936233132855
83.47055587969237,-0.7332447850200245,0.22501628231286763
150.78050049318284,76.38288143884388,0.967874207419697
-59.22845085688691,-2.670932600970289,0.8480436011009121
-11.013991394116792,-34.22149854517391,0.2387460527502997
189.60343044891158,-23.214005392284882,0.7939514796929583
-139.36475625317433,-11.182452297841717,0.6608014377613294
-27.297401048363373,-115.43228217007726,0.3444026482867397
68.29147834018107,135.57376929535766,0.635289047214735
-36.4857167698611,-98.93052850872317,0.7838957693510638
-2.939787660918339,227.21512929596344,0.1345987396582693
66.92560604444321,209.65385395278614,0.5541371534104788
62.247277171617135,54.77805017209694,0.4717752549772666
179.83166521412315,-50.46468657521943,0.7504074271885294
28.26270995364584,-78.29059622545522,0.09269923860230467
-20.121543537090933,-5.366433217203586,0.9805995310820806
6.906979902479571,-0.4098985557049349,0.9068417533538811
-142.46718966640123,-57.76517735031689,0.6853617517851406
-240.03227539322754,-0.8766339037251429,0.615360196293493
32.052693496825306,-5.126332134591312,0.6076886959802382
181.44310146148283,33.51133716525872,0.5943701755249177
37.503726151064605,161.14237727580092,0.02681151221152467
100.22142930432132,-115.02758976617187,0.7379236781962273
-124.2815346347909,5.783965120397743,0.12144360285849021
-52.523263368636066,92.46837034784227,0.9415177048788063
-167.3251407017481,135.53597162234135,0.2379574862127669
-101.86349622098238,-35.01365371620752,0.951870037250231
3.618422670096108,-116.96163135830233,0.35742937195092284
-110.81983518718947,-25.054141367740517,0.32306532531558274
-3.9266252622321773,-146.93965706167148,0.9009892831778024
-216.56397227883727,-110.93716538471543,0.9791725115827908
-128.63425955893172,-55.40526030795698,0.0843912079015614
-242.0210741995931,-22.495667305426167,0.6192291843226461
158.08005419399927,-12.924224017062425,0.014923695322172859
-104.89148342954189,-18.2911297977593,0.347138168583047
-162.70870061849038,-96.76085235387681,0.3989193020951005
86.92058908731624,39.088057451476416,0.18351222367170983
134.2969746379833,120.56617190979388,0.9790963276447845
13.071083968844968,51.64646106634033,0.7452579390048637
98.82085735821775,34.42130155519251,0.29671483394525633
-28.712633354754967,66.29842757471079,0.4936451448452138
-5.095651920125536,180.79576818994846,0.19629570678765784
-181.70271822992495,-110.72573429296936,0.14274724704543174
72.1263002440175,74.73273278158048,0.3333636181312196
1.8886244676815391,75.80783395103155,0.250994935463853
129.57881128160884,-39.04703293687145,0.32495132954907646
128.29742949596545,76.0583771276558,0.6407766073907928
-92.93146313386039,-177.43032924178817,0.16024541739022347
-102.06008353579364,8.211690955972024,0.7776630230111038
-11.298504030647225,95.11987397957407,0.7372400226564321
64.82702835890505,-10.447199569116627,0.5673527330585448
-27.58732652988106,162.951874947102,0.611644949059215
-54.10093362772517,-143.0839050736198,0.22562993176614465
127.839440574674,-34.57588095688911,0.4630286073033718
-178.3607719687833,82.1868142557486,0.07118664585399537
-14.1148456134686,120.10025515415992,0.35527990361305106
159.65634067126598,-29.09917499553316,0.3586604106091359
65.1182032202464,36.65979935327315,0.6670904555993793
-42.619879425685916,9.443577244421826,0.7647319422522315
-141.19150501149088,46.8650186654856,0.5128126756329027
-5.507630168682647,-84.17402660646022,0.026570532556462023
181.60006853895604,-57.300995438202165,0.47764891986979563
-161.68949716598263,-215.22520823904858,0.6167915512518132
-146.4349747903095,60.18088957347823,0.3805252298388747
57.216897177719616,-201.577886451811,0.4040157915040897
-10.283491842338615,-22.775061711980047,0.41869470074812265
-48.28194351686648,101.6391290199961,0.029255980742470156
35.89584010372288,52.65297092843979,0.4170053484045264
-76.77045172657351,43.72663764684191,0.4936030792969648
-4.974720136795931,-39.46013991360086,0.6995202582017989
-249.48352676450568,-4.989864789175478,0.8009629788463201
42.9071134840753,-40.70831670138714,0.13088168236467124
91.44451309542987,69.35255186203224,0.33003225021417204
-130.20942136271395,-59.25096845548063,0.01568147237384987
-82.66390288824141,-71.6567728698605,0.7196108756681977
-129.76030011692018,-80.18487115501087,0.10067782869458053
34.496046426535415,21.843404100616812,0.3087979398936168
-10.07378769327083,-48.92808448942473,0.6309055488134014
-5.9336207222408275,-49.85596576419759,0.8033654787327501
47.48250984894727,-104.40249034501987,0.8819688784294291
-139.37599227042392,-251.46102178889828,0.2190041841358752
124.0865929717188,-161.91814100306033,0.1015060908158828
-20.162830580073784,20.086828969809307,0.3268287761065223
99.86462252323048,122.257253887954,0.7584261989627423
55.80443746037251,-62.41334559725613,0.8425651414938741
-135.9499283895736,-107.9751942462288,0.6399086817597361
84.92185031878427,-343.1498482427578,0.7611541800660948
-50.64084855743217,-101.40084417767528,0.27305362595299143
-69.19529741980479,42.524838123902455,0.8218299791885095
-144.16460396617973,-28.2760074438542,0.03388120570427389
-114.64016038984326,144.11288352829524,0.5146163428949094
-145.19418980538887,-242.45081270753758,0.5721506531378258
93.16931815921996,-16.7415431489928,0.5755278269266492
100.62345827228793,11.098697694885375,0.5673333640537186
-171.11882660580497,-84.76608839178617,0.8731939327381959
46.54431408908625,-104.75622966431,0.07214765493300546
-33.868568982294754,-14.995685055480697,0.5564683290756938
37.528190060198,181.67249277462685,0.8344966412175737
-96.47149951116108,36.14125942687572,0.14081419547009943
-34.507141272053204,-12.048848362523968,0.5352075883873831
30.86827001429257,-175.0789446375064,0.2148544323923347
-56.5164682608787,77.86756278352614,0.446848158814684
-96.47917450194892,42.13982668767164,0.20136741770828936
161.36980079481197,-51.61594909565913,0.6658506083792188
-75.67425599331807,158.89591292714732,0.23737888094981285
-114.88850585170638,161.57724424694652,0.1232694631687754
5.645402499513501,222.21402355209784,0.805715435044252
-75.13679323342433,97.79078248223308,0.8524528420907339
-87.48183323218761,171.8489685940563,0.9781160184317144
7.246695385376493,-109.0332238661847,0.477159064994084
-33.766593181781076,79.08386556956955,0.016118431638882824
9.785533265936717,5.964353443494888,0.8393295613099939
-134.13575367038248,117.77215861944856,0.6418825572671419
83.4535128725312,-82.53793572439425,0.10899368815567423
-22.493668609318696,-17.047586561145938,0.42881489402554573
158.3094727103699,-11.044748390845267,0.22903091245708862
110.53788540110565,-42.12295753581221,0.24768148664658263
74.4232522627977,111.97861878187045,0.15805260358056383
77.18796610349152,-25.372187894737365,0.3949256819240331
22.840713779374724,13.296723102695635,0.8417868885539297
-87.55664159746179,-129.50570501785853,0.3332134164386813
-46.44667783001464,31.752720425634458,0.023859992453655665
24.85217514621021,276.0203722316225,0.4724938478914573
100.82449497571425,12.455052565640097,0.6507222638859435
-29.26566902644458,-88.41072023628045,0.5081495844331103
17.020661990774727,-137.3942700136772,0.620145871656986
-69.0834232158757,-45.99255900613801,0.06073941821829121
11.805937497010165,-135.62087408562377,0.22020589138590418
182.46986368608611,-130.50154641772875,0.4630892363903424
-58.18402297508669,61.10816565672204,0.8113693710913132
-241.72928643518884,-68.28610636561872,0.579347893929899
35.6400957857318,-99.81344182352004,0.2076726736534723
-143.5191003361285,-141.8977079216022,0.6940261874303033
-67.76765204540578,59.95334410582404,0.27571139073026874
-42.99199713311346,-86.53023441694532,0.9559629910869054
72.20868147166665,148.01165527351085,0.7507166442982542
-33.33406675225797,-146.06403082939022,0.08806273443838819
-99.12308608636225,184.41068993787567,0.8006431465732421
108.94918954229857,-32.503108194643026,0.02737375641406803
-109.06480672905742,-135.45578409192206,0.5050042926692518
100.27637404324426,-65.12463245186517,0.14925212011495292
-23.718344092202464,-45.53124926559044,0.16123392041686224
-0.43660967916503574,34.50769122613937,0.4838575365604181
-324.86674494714094,102.11553255037191,0.10314722959421385
37.32557025014776,152.60115775461693,0.2565784358198383
-73.16627492358317,-63.548185365332884,0.7790289563649735
-96.16370154132284,-121.72928381238899,0.3510800503708652
-222.99647496448083,15.32873780709586,0.22411708541403097
101.97757075430947,-11.74156370714369,0.2542055539489835
51.487200812327615,-51.396107325643555,0.7761493493300738
19.049224543423744,159.64151398950065,0.9593284413047511
75.25733768091504,-51.06796980566383,0.8610795934881221
-48.01944776930813,-79.40235100593232,0.8694746570839997
-41.93074580068766,-136.60174799248904,0.2051572797102712
-38.96928302635251,68.61241953189146,0.5602404498429944
-72.53213266189202,-16.0076006543039,0.24174545633107758
22.196579268531405,-17.52879067600026,0.15431370035199488
-33.14712901931929,99.59906516355576,0.3729006011007566
-77.70819537946055,-69.76910897841017,0.594826217610181
234.62602649288252,113.9201437479304,0.4366460791565485
141.19955598102712,-102.5305957549848,0.5912543189963966
131.49842722332278,-67.3820287078025,0.647685811326111
-87.56251988420092,-92.28441238447148,0.9976320328590673
35.42388323063383,-92.78635405972632,0.5787004366184995
11.765494758674484,-74.22778244577138,0.871057425201526
-219.55999897055506,13.979789494600524,0.31574435378821375
77.22208567003123,82.65577421528032,0.5915307902164614
-177.4415664514678,-97.9846649903664,0.07905723227900863
44.332649286225525,18.594155622689858,0.8005250064196135
51.71266171691975,71.04848799480727,0.18364484523558078
-8.543084158066213,-56.75010665016485,0.20417663660025442
19.757664409752376,-46.13992262308846,0.9044633609214644
-78.30859193638682,-64.15355030458161,0.023678111622596587
-21.765187498552045,-158.99025544964437,0.12014491073452016
-121.20704693855365,52.26823338352271,0.11598593135184987
202.5252052859812,-50.772954318123396,0.8469894500733772
-84.85335157586356,88.02676002119819,0.19881656113742618
88.27835290731893,22.951286069290052,0.04354915193572062
-46.02362671576915,-70.83774608673995,0.6631304573488283
-39.622931831934416,201.81746579756327,0.7444518672368141
150.97924271347952,-61.39600239817119,0.3981291112507991
-35.09883507984993,-49.42880555455769,0.31098245793667545
62.53103377752064,-198.58127453977033,0.146497715671155
-48.59513780999275,141.45626543364142,0.1865303531367778
-82.04410506313008,-14.13715959742929,0.4435985751430238
128.24125146249196,356.0509461013918,0.5608932026477331
-82.16393497193748,126.30336626459746,0.6712651329818118
-5.243429634517479,7.989137638165868,0.10462346861312821
-121.41943712099845,3.1671701388510165,0.5256881910531025
20.93024907564827,138.90286997255762,0.286626453184178
156.8913570435978,-9.161819168514963,0.4665187435277306
80.11938733861945,40.864563005385364,0.9743671752510413
-65.90402130766337,-174.4808224592116,0.10981586321390435
-62.59085720038028,-76.7948696482943,0.902807788212342
-47.4407100904471,-45.72039113287266,0.2845300332771864
-127.63973035589495,-94.00634059837017,0.9052232244860821
-128.94784689129995,-60.349851871036996,0.9771695333334809
-51.52709581541165,59.324501301145524,0.7206575409420859
-37.287529641204486,-42.253087563642275,0.3773464094004052
-103.83764385710154,3.553319538073077,0.43582549522095826
-160.51887356851003,-14.108961788687363,0.7700286197047401
-9.773397109978857,-184.81077475701085,0.9012888944574714
53.63353189351254,-101.05690790863153,0.23860293350659945
-90.6353349759349,-120.55468595294887,0.8131558083352303
-47.092212289503,-39.26784614548321,0.26664179493015805
-134.79078506968904,108.75819001679916,0.3271580829638445
-90.51530442731445,-135.2142110215931,0.5936902004475735
-51.4619441967771,-93.1465577189464,0.13256915876007203
-30.608941647100107,83.91178619038487,0.08553630038673876
-99.4802817557549,-61.17245625952539,0.7672837688160251
-48.855781415809155,46.641461794089494,0.5026605401330624
160.75023120802962,-119.07483685448797,0.8201889049240202
167.15892410447412,159.908775593319,0.5856160462111375
34.9722964734235,190.43130355206955,0.1260277121139901
53.66298993759965,155.83917951136993,0.8738369707514915
38.255658352385986,-87.75176446657561,0.08649063151737602
38.83257093663612,81.00583796077217,0.10527352675243229
-17.22014463287811,-30.901276631948978,0.9590299706193951
-36.41857885689424,-66.5481963971056,0.9639812593722817
-108.73594352395435,94.58447605107705,0.31232436273516206
112.14245370108786,177.32381174376718,0.6102270535847486
-47.46747162567888,66.37456679888602,0.7210825900722254
-63.63510795208141,233.49916667282648,0.05031668239724174
19.699527127132495,-93.57935202144894,0.26507212637319566
-7.088202512421512,48.116024157179034,0.9453989648647914
129.71931537789456,86.97350506262089,0.6064294060453335
138.1712978158886,103.35285576757435,0.37563680212134143
-4.461535583770623,11.200203468303592,0.2340091350658281
2.8845125600896555,89.8109386948078,0.8341782309629765
-203.8197764533579,-67.15483961827681,0.1086091259492572
-88.37585513643151,-34.10398180414517,0.2169185041440319
102.44166538371908,139.01982621563224,0.5301806876178665
82.02476558713272,23.69675430268235,0.0944126495962051
259.25161715905654,-106.99657251239334,0.5445172484014459
-25.606948784524363,8.635239971375794,0.6101773884430702
117.91640472928253,72.11869486189435,0.14490837087736919
-106.22713813556035,80.26588201524567,0.04842054207790436
-35.818737799270124,-19.56023632401723,0.3525858596689492
-129.4792870491475,119.20922528996655,0.7065942500075911
80.46720985873364,0.13645197790325483,0.978955464598299
60.320903905801984,-7.611862602272692,0.28352135289999003
135.8653437279201,6.251742076724283,0.5267745459679674
34.60574017265024,41.879687879187635,0.06075560219589493
-143.18483499381773,62.854913558855266,0.28533323147558987
51.435597488002614,12.199750208434015,0.40095579791309255
-131.53893113098349,-48.044875386079525,0.972596681717275
-80.20323476343152,-60.50076615618448,0.2926406133361519
57.31618874165855,24.556556070251986,0.3642571644897141
-100.72803784187437,48.10875179737389,0.960366500642773
-115.8442858494036,135.37085377053214,0.6173593581039966
-16.300513319179156,43.10720130777072,0.004223881057155099
57.4183876024171,-60.07314486229469,0.43404962195317875
-1.6551043663976441,132.3133095997322,0.9196804317904208
-39.467965715149624,209.97745475743582,0.7773253484559626
-84.17514648161577,2.053822859388806,0.8813810699773502
168.9862326024692,-74.80110809695871,0.2675606725696328
-60.043949759036494,4.000193139982896,0.2605076225311249
70.80296613589455,7.653889850519844,0.4754584817506792
85.7365308987725,89.02187306311305,0.7048389940533464
17.9628959933731,-263.62466433591436,0.789364715130257
134.88623903987033,-137.16552787102637,0.25629526751961806
-139.63725734725472,-116.11612864258689,0.9996452232877925
250.76426381062214,-21.64310164146191,0.21266346284257787
-94.94573402957222,25.004802839640277,0.9907887563555435
-68.89832374064581,-9.222378854447358,0.34731612023971326
-90.65791460896693,-108.60966899964824,0.653368827357022
16.79877033557143,-4.3573194425726145,0.9670581737787688
98.66334875192089,90.1084256180804,0.9960574889473467
163.23715456055584,-37.8814305742071,0.3031470879993864
-103.04851186276665,43.92588875427098,0.7597933632725135
-73.22694497532943,-65.10548334987415,0.11719107410786533
22.070553784603828,-198.80406918689698,0.8518617442633073
-131.16644184393672,-24.44666916639615,0.13131686754207283
-53.24958193736453,79.11914111167101,0.9329973339618217
59.710749125113175,155.63175649608408,0.6314397596923922
-7.360943282489737,109.5370554941834,0.10145605707316874
81.39224607764983,-42.11366442268743,0.04159211532616658
159.9670391669814,30.42522969157435,0.7949984379184349
-0.5363315718175088,155.5557893059773,0.6850775259593183
24.205460434017706,-51.2333586269502,0.3447691093479692
42.546555656496245,-59.80819747883635,0.765054995854433
26.136284494885942,84.36983271631155,0.06487392781237278
-48.40797650487091,74.60268079842284,0.7094180138189424
-153.656690452545,180.26036664628586,0.6577700678853545
97.44207907118445,-61.3933212663965,0.5038607739363811
8.496353899328229,-28.360494607434333,0.6400015344245593
-20.5883524287854,-103.1528283910639,0.5500071002238245
-114.2907035519117,78.40180272675302,0.7960882237031335
114.23759373903604,149.60432269447801,0.7171238224532431
97.56009740110201,3.4033986245415786,0.9756409903061404
113.12413460200203,-134.1545632346235,0.8302627057147783
218.21082744831756,66.4327202774665,0.15845932432628063
-46.17131943605119,-21.178847190078486,0.8947603157976678
49.31876861161179,-5.258532349460462,0.8061465483390673
-240.01808986792494,147.69883333940263,0.965574853916604
14.185866388711746,204.32392085803338,0.9625878492471753
247.39411830573505,-40.60561371350717,0.852317446957484
-62.20521122527245,27.828699557834213,0.3424004721400813
-115.11505733715322,25.267243000483834,0.8526156799403877
124.78032816904883,-31.85750783098129,0.5894574587439743
44.66278758019751,71.95866877536915,0.27270145336015983
-89.01113875593492,29.103753939578407,0.6240921381467309
138.29938822421207,56.88017077961776,0.8334297799451768
-38.17532912807073,-38.55346863987191,0.0998668825550072
43.437572171489236,-51.71559508891846,0.6058207002814411
-201.8069174285918,10.19948210461098,0.035028048398187406
55.670719643538256,67.77414710651432,0.3573059270162807
236.42013342440035,-119.99266294740106,0.21777165071249238
91.75598162367491,105.22812034741426,0.48819926687656034
156.1760875169442,38.024491262926944,0.07675411906046048
70.2444145507625,80.88317328094305,0.28650263198974313
198.6925122420584,-2.060251945860001,0.8291898211328868
8.016512578753463,130.93564280042597,0.7470677079640053
-67.414709443266,-185.0501413320007,0.320301352365587
138.81373076242875,-90.97002811835152,0.029424557426941944
-49.35880153233765,83.05275698107857,0.6475214648262846
4.788202311984643,-43.8369724763785,0.4317211565115411
40.924039478766794,151.80994049442384,0.7505598195281596
92.24799018471307,-65.87085444968035,0.23169168747055335
-57.86004094212296,-148.20374732170447,0.4921786897678678
-103.8146939926441,50.406413831034726,0.05268480420141253
-33.339648443174994,-8.331408933935888,0.4520571140370767
8.491928900612013,31.434950339448886,0.4394802692729878
99.79474184618671,59.07913082145942,0.13601299625794405
-90.29384790331305,7.709051440936607,0.4902960127037629
-14.40902780905934,92.91854196792431,0.5639407190273333
-111.58273899522672,-95.6335796962553,0.4774043378365722
137.42046730222214,152.3317064645195,0.8383741642217973
-97.5532101708095,82.92370838443736,0.308573939213851
11.724223739175699,-122.39765291538343,0.11221649382862331
231.8899919399874,-138.7371768979926,0.6555968514959915
-6.499001084592132,-108.30581833589304,0.7151355677948348
-160.47183904628483,-152.8649657798508,0.36588642373143465
-29.060786082825906,-78.51257035320239,0.7700087195128419
123.96472729596846,54.245234527127195,0.056431246104877375
-25.084072502063375,-58.74458950456476,0.7176161419294571
46.10311799906025,30.77073885377709,0.3915887661004016
108.97782891417222,101.69492462995966,0.9515511852473643
148.7022226623885,26.528246489723173,0.6121672582155128
-60.194050623036,43.195625914967955,0.2944703375977029
-49.697127832658886,131.27493053756297,0.28097161833846096
-1.4970150905114643,-72.91450519891825,0.3104482768121677
-77.15358074235257,58.83588982578745,0.12877248950387787
113.73941664840001,57.494788051071396,0.8185524803964428
26.663770538772557,-229.6410909164471,0.023236053493719044
83.13452651717576,-55.06731759886726,0.5028453665952697
-137.23730448679078,10.436516181268669,0.5326937093625141
-22.1251765159087,0.7219302105535681,0.7572099389965014
109.84567271380936,90.04419487117967,0.07971161478083133
-91.970792677776,-2.086441860688365,0.5482745550818853
52.10570280197908,216.3961111964792,0.9556863072010802
-100.57751294110781,-106.5701519968989,0.7800704236952346
22.01536041069315,58.38968235592093,0.9020524272519543
-62.68880973382761,-14.618781724604007,0.9209408859691606
-13.24270953103413,-7.00524155450955,0.45260013025791657
21.47017701448686,-10.613573567340822,0.17930460307843954
78.90278279535632,27.71633358736965,0.16579472149446273
42.528516532830295,-199.47470499330674,0.7669027090802242
34.89596792114348,-47.70916799779702,0.33919862135243195
73.72265278310456,-77.37978690294945,0.8654111487422295
195.6583789982296,-86.73650855223086,0.7667177103144518
-3.158248339860227,-63.64876956538148,0.09530191618411432
1.3362272737071663,-2.377996207435704,0.10628825997084868
33.907741180528035,-21.564403630068536,0.1682431560344958
-1.477269408448361,15.049090478895403,0.40318639373663756
-28.401758923058683,242.71288354920904,0.9719293180149773
-40.13917764152532,-89.30043370276834,0.33882043068008283
-192.1821484582366,157.4958686295048,0.36116411860369446
-45.3582270849916,89.45979312171383,0.8535757580839528
10.737904021074032,-113.25880061389675,0.0341912572265346
1.1145168380092216,129.76721699995142,0.9776596681348237
127.4496363057114,50.94913369641699,0.10077224643779925
-126.64802512803266,263.24777414191306,0.508358796303804
4.005750304204175,-59.7652289680301,0.2055282249105379
256.38279757635155,4.0187244969921725,0.009131486874815131
0.6399028743442979,16.060560736625288,0.2429415478621162
114.73425927803503,-20.965974736125425,0.13185901204703843
-106.4931347781678,-139.92457000634573,0.867062793305294
8.850248580586973,114.26929465983457,0.3101729146371297
39.434381003647516,-57.57321228231095,0.3854818853629227
-242.5530091618536,215.2374921863756,0.9599427233111559
260.132495852075,-119.51947785286532,0.6485409031903071
-81.18142412188392,-7.257791250340897,0.5025994736799481
188.09051470674038,-32.220059386770586,0.5513727416918937
-9.499882976184091,4.033154804652832,0.029722559279493077
-66.12877369129248,65.77851142145941,0.7572092566648041
-0.03824120606977954,136.26069847265416,0.7454379502100472
28.346944030898335,7.761787385489617,0.7840216611867294
-55.14405640524377,27.112589212867956,0.2200413971163807
-175.9961595807385,-30.901037943725978,0.9081585526427179
80.91546017478069,50.19196486637825,0.6230174558017344
-53.2398951146388,-144.06672768476668,0.11020429484593786
162.34044423416233,123.31594744824537,0.3171331330096846
-82.15458738145372,-113.08189867260397,0.47018572451146123
-36.162239397743896,-41.574167400234586,0.3013354343554925
96.00019074437964,-30.040209643524957,0.3718395965595874
159.72522788282845,106.21800276667786,0.5234585849597309
47.30715390909065,-3.8350636891705627,0.753698917627782
-134.827722179649,-50.41627015217931,0.015629344740730855
129.03181071151846,68.07926320658211,0.5992197232064396
41.90823517760297,88.23116023004928,0.18418241385479683
98.4521404142119,32.87784323350549,0.3264789844833854
-62.21470202008098,192.48757716032162,0.0770671798330621
119.56359958497005,153.46440236127773,0.45655387157942584
-191.8370347983445,-42.932812654752055,0.7786407900258037
-60.72536659034671,-38.65564927954648,0.7712402784979061
-21.80355644494267,-21.335762794199876,0.5002305896174752
54.50443882145641,-94.78299350152797,0.5403989275089665
214.00433045170448,21.13855006346272,0.5995484295802314
46.51292204084242,-80.68299346530969,0.2143356561422073
12.987797406683754,-28.816986477464283,0.3434005553261419
52.61133688211264,11.12524755976308,0.021560627474256022
-57.36711353952156,44.91801302822375,0.718237870594164
10.529703794127428,62.54398418593068,0.5217131339712364
-131.90706161895667,160.78338937905954,0.003732943145147938
-93.22199313053733,-33.394788849253516,0.101291004312841
63.54567364218465,147.90308563171322,0.7848002436474846
35.88435406280798,0.26027412105066766,0.09671309046581023
-23.98470409530312,151.8022874891246,0.4460169897072114
-177.07777964255075,-29.068951886980184,0.7088606652078139
124.1227341275944,-61.2968740629644,0.8323218391637521
10.701413315055659,-0.021304642008963773,0.526005884806065
141.80336449922203,-42.17850765473856,0.07613523353097307
53.659191130383846,-186.72834583223496,0.5833147301018156
-111.94076242633051,-77.30685317261813,0.38316984670772825
-106.3018855267676,37.81937557735256,0.33052094581022085
121.00141838915341,-125.98203608366147,0.540043241741146
-56.25577530103825,12.53783553471665,0.6963520518963181
72.2846926006148,26.096521075388402,0.38615052039870934
5.520348440410949,9.100662508165078,0.36890795108703445
-19.211680142944118,-78.40444587304202,0.21883167267909698
-11.24195136566227,-11.110044851335612,0.5412599900420889
103.01658467106867,-44.619924057818324,0.40321235560838287
33.02067565387182,34.73309929530727,0.2096221475664991
7.4095109015834115,-21.74705274688832,0.5939939351771777
46.133072312103245,-13.83976046276606,0.05544379925216225
48.68840368400085,-102.42150062455812,0.5118496809142811
-156.1439204781477,68.15797444975084,0.6782853394641726
-56.211566196821884,182.79928766269913,0.9568778165588995
-71.3998542595108,-6.307231116012982,0.3351711112918757
-65.16263893133146,-115.79328651995462,0.22214831047673267
131.12113929428725,-13.941270102530634,0.546746535703856
104.36442811894028,-96.01691897954434,0.7619550264250644
-5.146217356388621,54.38794012236619,0.08344561870668177
-4.208645641267558,88.35366924773564,0.9170752918599538
-22.82324015939592,-186.623685383701,0.6482641875530075
136.49149809961952,78.57339231399453,0.31743963332671143
-127.9531690110127,30.807220935426844,0.3626444352891086
-71.63436594925061,-73.22448642127654,0.24508116270361524
15.625812754453246,-24.111938060236827,0.5270881349546233
167.60920108364766,27.979119772628053,0.047566804971453935
45.99058112259047,-42.60323565845759,0.5172293019585926
77.34234824899846,-124.93506218749334,0.548814019040258
83.59044326730424,43.355213543336056,0.44254483084364393
-181.4392015411847,40.944744497942324,0.7756095567414104
49.64123332425907,130.84677235815718,0.607794459664407
-143.4375120639169,45.94691339971395,0.41293485323163626
-41.93177572437891,266.7816910481238,0.9905699684585156
42.48624266209255,14.40740205474738,0.9172973266033325
-21.15538161647298,98.10664342828227,0.16012909679980092
-91.33749678617454,-15.816696369095387,0.09611086190416451
-2.1893233363179982,-128.72575703414984,0.22516929909923178
-160.94084671160252,54.59579622677341,0.2617318973885917
37.02749492424658,98.33623636518676,0.0848489383561617
59.11212051446151,-80.83558144136528,0.9475156904400107
121.56332514204173,93.18130171682094,0.16811783796608437
55.531328860162546,-33.7006039087047,0.11986660407541283
-93.7784565315954,-45.240912325435716,0.01604559695867791
-63.09566787674651,125.1829814267268,0.14790194885608388
31.810605674908825,-121.33947826023086,0.7160805610547427
29.43727194790292,14.556566053754704,0.4079263893340448
-55.78432729650864,70.39403198552,0.18769564266681893
20.834562988755856,-70.34013039083297,0.6897169197601157
-99.61553148321823,-22.50893288366516,0.41077977075243244
-70.44043182665538,83.43554076241814,0.9354926047115053
179.41503840442138,-141.70171911496817,0.058583078459827465
106.98307632243846,83.04545554849341,0.8502340990115737
-137.53930178744793,11.49872748872209,0.37691669567512154
69.16933345223376,-81.07425770442921,0.7721557012509189
-224.48260320313912,-27.436330831888977,0.32884725815509075
107.42516623683278,14.227983157490273,0.43028950522487286
-79.7433154114042,-12.209487099327768,0.47806146815600814
-106.24572442359579,-10.31122546974663,0.7449695937124683
186.55113179542607,5.1403870229531226,0.6961429214489359
-227.7281337721826,128.7263961082698,0.6108857058472762
-99.02579215221002,83.07188562144108,0.9913083543268996
-13.17935438108638,156.72672153719287,0.9063699173504288
-69.6305530101087,165.81233943980635,0.315155788401681
-18.09462446439756,-101.90120580232723,0.13629778599657993
-67.49647961172437,-58.13204212979405,0.9991119307282106
19.395814148899248,-21.22494665345557,0.7665574688279327
-21.226302277783528,11.558036583182929,0.6128404668270373
-143.81273168651083,-12.412117082178124,0.8464533818294879
-126.96556400225751,-38.256876124186476,0.5779160065481467
59.756805592709725,89.7275287037485,0.4219881316705155
179.1742637772338,-118.27595075064355,0.477523659502612
-35.64856927075123,-102.52011928887354,0.13515669655018658
-5.423358449570219,-102.79753334288391,0.5742660905099273
-20.679044797827764,-112.64205713063586,0.22154871482348304
121.81699046627317,163.5192307182137,0.4584973916020495
7.53646859766323,126.99449426744087,0.7947806428983346
-176.25658915158326,-26.600262706900534,0.5137130807152607
57.09691839660426,27.62789672742957,0.19441056347952823
46.09448525820001,-50.32505606220315,0.5397714198482839
1.215483327974102,-115.97475298784798,0.15441213674074383
-151.87163497541104,-132.62482058561926,0.16026500589253656
3.0916205399132326,6.954333565995283,0.5292723867524425
-90.08642330997253,-58.268569467115604,0.05212005450179158
27.2644829267915,35.14039056862117,0.0926779656160861
-123.44589553977767,-91.99573154437452,0.32327466547274863
-8.055158528026544,-76.59237404852253,0.30491406793850984
114.74050118485344,-197.94322749993756,0.9909097585223888
25.5052401955922,-33.24633138403315,0.3036892622670001
-60.18032551800293,27.733931928613597,0.736436078399769
-148.09280455027812,114.22880193613085,0.18123326445518984
211.1058785003816,-118.51845692728067,0.2745560526172607
182.47255156206037,-47.44654986979667,0.34670331035059565
76.79349781478425,-39.65682011850858,0.420488556758126
51.81347346598022,119.49127879880972,0.14327223519210497
-14.090850802793753,25.31448921091592,0.9557410750037069
134.3503177671774,25.275364376989362,0.24244815721591295
55.54079466674159,-91.02058240396705,0.8325311024577996
120.27433731215677,-70.15268132113698,0.7449948572184957
17.053313614086914,-38.719528444365466,0.8887287689884873
46.046864743848666,-128.59321819414583,0.2833619483844483
-77.33463676695338,-5.214365054240756,0.4773400851829003
85.39550529305579,-44.35313227872253,0.7008576443377668
-22.086076836967035,-157.32607343951213,0.24311627571568173
-11.347645205970137,-67.54644883481127,0.9803914224892213
84.53444922405026,-59.81283383560271,0.573214795383944
-285.35169872556025,125.60798290517619,0.8408131554913416
-94.93280473107879,-35.40916938795447,0.5754489050895124
25.81469492387064,-30.35961640314787,0.1875237989955455
15.761597686327061,68.8121688893952,0.7025990139275071
33.27030059160463,34.211819756509406,0.34036456448102237
-202.34484514546102,-67.49855419352124,0.5209012210929418
105.1425035166617,-10.543625777471583,0.9414824952357416
47.62575485746102,-140.17018901206916,0.9572363168340564
98.49881355416012,94.53208927525166,0.03785457472766418
-26.046453121837065,81.81935799430103,0.21975757366198956
126.08255036250344,199.79366548032883,0.9452146181528411
4.376511983811068,45.78111769851474,0.13254879555126098
70.84865969198951,-9.730507232938907,0.10320680562345752
-51.12356445977097,64.206477691867,0.4149930177468749
-100.65328287854847,108.12476705201229,0.24196621047556022
0.12364492133411849,-22.668045723833092,0.8866494799489802
-87.75647437127051,235.17494723424278,0.9266880741951795
-20.046382887478018,-131.70525337880204,0.3052010723630787
-91.42070466548537,16.012043553673934,0.893229242273216
163.53033154971956,110.31573906708208,0.7885619625507747
-0.8681262113948743,-27.018207238181486,0.643922514911539
-152.46244647626932,-205.95163690565724,0.5012577336595306
-90.02733019330489,7.377621969882155,0.5488200990938766
-59.89052033864969,-11.38376404706348,0.08482206085052979
-132.7895446247128,16.47919131556196,0.8108585956800877
-57.53551682050865,125.49721219373092,0.01744362880702388
162.41437913253912,-31.58077000851917,0.711727586760234
49.74537981777201,-27.383525169794503,0.8140367888593638
-13.229423745282487,-79.46188692153515,0.8688951536116235
-66.4199713519066,-90.91812652624182,0.4994037662778076
-37.407107213556706,-74.51991484189793,0.9545730431685744
78.77555966499531,28.295073237134456,0.34990743152273307
-28.419494803032947,13.135144393429524,0.717142811807058
-77.01292461235771,-18.403102724703512,0.5252249419104177
-45.79404782758408,14.909009263395149,0.5952718570708193
-29.908571133610895,-64.90135178043367,0.24790750555485142
193.96629070277683,77.0612517411878,0.6747151571121346
-95.56102342051564,44.82919338031855,0.49480192685520996
31.991647393086893,59.869268650121136,0.9084188615413773
-21.62810673041223,90.00087553171083,0.778438593191414
-62.288384712688085,102.26345749606138,0.4181611380733754
-121.95768428821448,-132.22991995822682,0.9607506423554645
-30.681973843103407,-96.78724299825133,0.6213618107132907
97.41872384936963,-48.307704383731384,0.35283695552659256
231.55775565273956,211.92903747363368,0.5527766322586293
-72.26652906710798,58.580272613128756,0.3084204232698773
56.16783603453182,-101.29464878903198,0.8498432622810923
37.760382810212384,118.67080972148365,0.023852812158659198
-89.4478143946808,96.91705594750178,0.06963518790893208
-166.863991361218,-66.46212055484597,0.6972790533018836
-47.661678120967025,118.00567355503023,0.516928887089652
-57.54353530701203,-69.22056982504576,0.6106262846748355
-53.54663160297414,151.32021675780894,0.14415927756000158
-180.92506871042707,-64.23633216253035,0.8002918793015728
51.87146129277108,26.504863159036617,0.200022883329243
87.91895656188045,-36.38954513240608,0.1648337615777029
73.30512894459062,-66.72985248506802,0.4445522633331753
-46.16676857502699,38.881140700054836,0.5314159349237673
-19.394142071087924,77.21227438082443,0.2431504843905372
255.97731269352093,-79.92233841738931,0.5005024032670466
38.40960040382806,2.231084612663151,0.7815791035620149
-96.35972183439961,-17.88728992861872,0.42274589121920203
-74.71121868399993,-70.26953373607616,0.9157785221506228
142.9327302992284,103.11551611748402,0.037832039517112115
-106.33425546267998,-27.479938254534307,0.5044899518770569
140.2336859940182,39.97996145784316,0.7346506323469094
-109.44092391285119,22.581377862792902,0.54489901537678
-5.108735159463711,-66.40888610083738,0.2555319595604296
184.4980961781371,-46.04764450043774,0.5591343956114916
-219.45853777812692,45.70858119845683,0.49163414880573875
-76.02237299654227,75.95554870659313,0.827244902345646
-11.94417180268275,34.494536168984666,0.46377600912421935
51.796492950812855,-52.772499114777304,0.21415473551252096
124.22904851355302,-20.554354301257323,0.5527939687280358
-5.419580635086219,-38.998614401042325,0.4727951452919399
69.49071567352388,-76.24565338703232,0.6148187799869032
-3.7692310075209736,-80.03468388640033,0.626530798049308
-49.18458511002408,105.75099553217089,0.5859907192735344
25.335234677535194,239.22098154057866,0.12434485717987276
71.83140046931283,139.82264247087855,0.758143551139648
11.734770681088044,59.19952777883666,0.7655872579488662
24.690498816954335,28.210783486131103,0.8158746878382843
217.21867831270893,-14.815560177204112,0.30538803742718057
99.36980155076493,74.9384250751614,0.15519727913162806
104.26623183851005,-95.9227594564431,0.021587629526013785
208.20072541888302,-6.028616432546007,0.9682223126306558
115.00296664576935,-163.85566402837836,0.32529523964909424
-27.2935177848655,160.72355657710872,0.623254450336228
96.0561713950065,86.11118146788507,0.16478351375810463
31.898879654338685,-17.33021199570534,0.04487448984586295
-64.20229089299464,-253.80727036182202,0.1424573871834972
62.119152937364355,-218.1053854492303,0.6597431715924169
101.14440827581778,62.684807089212754,0.9610134082742533
19.96817003725058,78.42287415944229,0.4447580128351579
-24.28553073796721,191.35505178045827,0.2707196996193436
70.67876947070955,-81.1872447733305,0.24926350908471073
-36.22646699879088,-275.27699957936176,0.8778595379427526
-156.03021103292988,70.38900649831172,0.07046539253520367
-91.2200164234862,-38.63515646797309,0.9216278970551502
-241.90221001610138,-45.880705748529984,0.40443257864592685
119.31147201657436,231.55215593326326,0.8054382964287458
-105.80878935648657,-12.912686448036567,0.9158940577906741
83.07813362633699,54.55675088133828,0.6709035807410582
-81.56999684761745,-197.66229718293218,0.06539409593810142
-42.08770849157691,-106.50955479036665,0.37011056690440314
138.9116456578735,224.0482380726091,0.7068106489156907
128.28749596896486,-90.96957800834592,0.14838537760805293
-1.0088530735259258,111.49434198490671,0.4081973555980134
-90.19904429722246,-32.52765340361306,0.09383805329555273
-82.58330867926928,96.1107963534356,0.9775250352291951
-34.93882387564397,123.06661106173924,0.16163161274727422
46.900360712906966,-124.29537798731101,0.5460982919786005
43.746411730980064,-132.20728856223687,0.46657063273535015
-167.03684489474645,-132.1870199994169,0.45154563386167446
-68.06292418246815,20.333917001196042,0.5367855777434052
-15.778050714395613,148.85823473053358,0.9661431544622586
-23.971209252687963,22.364164071046087,0.4938503091198382
12.586916212214527,5.235324955468702,0.6949972465718732
-294.98665540928164,-89.03115032126519,0.7108564061247648
-159.38567892308595,9.974958091504735,0.9096345009736339
-58.58732266181366,260.43166493675716,0.01507010340850412
85.82070283365172,37.605878983338805,0.6064455908760787
272.7281810364701,-54.38983712135814,0.7400955188665854
-2.0668954694145736,26.70578892527008,0.22784350816644783
86.96880662966709,99.15740799183682,0.9906006308340591
-33.91654941635009,19.27862439993728,0.8948379719999169
93.52086293349143,-26.485278754217838,0.5762200238287248
36.92917367785839,88.57684382551302,0.4312952418029691
-61.27905670210485,-20.57007422198656,0.6627107096800366
37.46499424361914,-20.248246528716184,0.8921805446252811
-4.651541262782576,-124.28316700075754,0.5199961909104186
69.67271859009416,-13.276547728602651,0.11549449392319822
33.37397026750061,7.765786397952999,0.052081729536822774
-7.212758219384156,-28.238021945082757,0.567870658390573
-2.6722981100419445,115.24582293158122,0.5800980359051774
83.30984646414457,-37.33875928880606,0.9110288955279757
31.592980974804714,14.959384577780519,0.8189411379546345
-52.32949345820889,-41.18832951786055,0.8932499896845634
-85.72665577445163,-141.75288292619032,0.864675362608001
-49.37277575297575,-29.58426524076775,0.20310513199963098
2.839796361891678,-67.29709262522856,0.17802603263913452
97.96521401702299,13.475867239965492,0.8497019553324843
155.6733468435138,-39.297202741964924,0.9653413598194818
-8.192061679542105,330.9992581545706,0.3479956458986204
-119.34380050296274,-77.96431111856552,0.8485506452970027
-30.26006388583668,-17.573174745847645,0.7212887320107749
-3.282290892137686,178.0870494455703,0.7522924229742641
-56.07702959968547,-34.32949975643802,0.6259152716469182
-0.5054089711802006,22.83093574461613,0.6599780970723469
31.793637920839675,-39.436097611082566,0.4877414844673056
140.88632816942714,168.2613063539374,0.34674151415390997
15.718958296176123,81.68081812687889,0.3104926726946776
26.9677045942254,-86.38913762450673,0.3813512635998195
4.237983812278013,-125.5178109620488,0.8337383694995263
-204.39720786011057,-75.08459483660694,0.4656609577700195
92.08274817046045,39.91986830482131,0.7032275544620933
25.85046918432829,-85.71229410806995,0.37821447992922574
-49.59139654213082,-3.8931359460900845,0.3522112842919758
-191.13497197922248,-46.14692254109993,0.9309538379972783
-84.36426915873145,76.92691175768499,0.30108749650207345
137.99926456583245,64.6050725235109,0.7583727471988536
54.73222862488838,-6.919896815672693,0.4818567974639929
-13.866612054964698,193.01211658821666,0.15249546679499548
64.96511895341557,14.03536210773103,0.992703103515179
169.18447754536444,28.004478901133094,0.009338603379515753
-127.801903528892,41.65899555842661,0.26601843743464393
-185.36922785693196,-35.283394986065154,0.5257715002723472
-17.52244098480078,-89.18463669693585,0.3184815082446729
170.06967849395025,-11.906422713254418,0.5316758683876899
4.458870696676435,92.22250573923013,0.029090451455604405
-90.03523754828562,10.314429549043465,0.2347885231204635
-13.784782802463413,48.59434425957151,0.6137306699747126
103.36075445742846,110.81371871888528,0.9785167233638091
98.26933560762046,118.39777002644153,0.5880129916884147
-81.82510292405247,-108.39388744017033,0.022801258851970152
-33.67625889886057,-58.99550114856022,0.13145451453913148
114.21912263636871,155.40979494245272,0.9463073212871319
28.516424252546784,-55.053729213046566,0.37406831847283395
-113.50055805999288,50.678550487464705,0.8681302921851571
-112.04216826851416,-58.916711579980074,0.27741897406280014
-111.22821053924528,99.32909138854251,0.4061002829763093
200.48171887709208,-143.8549194538897,0.5154343351649007
-64.53716963941856,-169.6030834111744,0.3086020086692899
-34.79070327263947,0.47280807331985697,0.7556681455072461
73.61340024658848,-86.96520639217722,0.7648582191845892
206.67347551283837,108.37114163355912,0.7377274288561646
-144.8471737163161,59.10305852901496,0.07318126944317949
91.60628931091456,101.44617913782248,0.852754856239962
-141.74955212971904,31.820922934652852,0.80390298843741
59.459693709589025,-68.13720213755668,0.8040134333971356
-76.69329974625518,42.76487152636598,0.07708929175159529
-22.4187913054057,-82.56088519000531,0.18856413439137754
3.8665878648432446,-104.53082161139126,0.2834504850600116
