97.54304146561192,0.2033292927421485,44.103537945468915
53.60850735203392,0.8294317223760319,182.18611921476432
74.581672578401,0.4061605001276798,-138.31591120013923
58.44185104439992,0.3770961879929863,26.310905608036478
-113.79398197001638,0.11462523073154784,-62.50365221955142
86.07758778042324,0.0776340248787235,-67.13035444900441
-55.295051636627704,0.6659120570452305,-73.39991137245359
-67.18919761277571,0.32496265138112246,-1.0224204382346396
65.32139294898924,0.34499481815569455,96.38786965424416
-248.4793303016895,0.6447922259282297,34.215709822704454
-113.33188437057942,0.9401152977203256,-104.27119367065194
105.76146016167914,0.01868631203338056,-33.303946425966615
-12.25281326029673,0.2495100952456879,-42.98585076644987
82.29245941849076,0.9539431441547507,293.10704373246836
-24.6510813373487,0.8627444372184045,-134.62674866014348
50.53847426401825,0.8308995802467226,-72.82714430286511
32.42669914723946,0.12324843555250697,123.58009957940614
114.90150265440859,0.8202609979785364,129.59900900564008
-33.1094630132518,0.3078300389393712,63.14631529906699
-148.51585329194722,0.6169433461404756,189.98938072980388
-140.41716047941836,0.8431642824709089,26.448321595235758
5.626644840874921,0.7500619273255059,94.39050154833696
166.3144612377037,0.594004146615997,37.37630108838354
-44.35461979213238,0.10556630258873789,19.35986366486433
-146.76439242145455,0.4754190031825596,65.45710791368724
-40.03116518848901,0.9332281171251346,20.600941318597606
-68.91948077625362,0.042336566042096124,16.71224126957961
-20.78584938895935,0.690365435263122,7.276335985384572
65.01777342506595,0.9337919882036387,-54.53053388067723
-66.45147857382403,0.4216587722280154,-13.801604431402376
25.662859021000088,0.6205415304525286,-46.24749342901394
43.47110663101812,0.5403207288033496,-24.366521321278913
11.036573200856227,0.03693305333260877,-3.8213750842969048
92.88186981388269,0.49703782752477277,10.149845893047384
61.84021581505209,0.1780009806030951,18.55465382603564
175.4966174242653,0.1802584898114682,-57.8713449500183
211.17877382280574,0.36572951770824114,8.769208751354645
60.98636323131542,0.09143961623312136,-13.592031938504572
-84.79491427856567,0.9333784777933755,107.39611888051557
-43.79485836618679,0.6706201199680002,-104.6560089964097
-126.1404943172203,0.7847127305471889,159.65796193772007
-76.2060869140542,0.8929271849569187,-65.66511944233116
8.900544580599624,0.6883110709682109,-23.451520340419815
116.10234159321912,0.42659886716638207,-8.290915337615546
168.88096917233383,0.6054627320754401,1.9645327540132884
219.26694810121853,0.24072722538553037,88.43235969453242
-147.91034326235493,0.08575819737704615,-16.67148305653573
-6.3981515967852065,0.19101244652585891,-21.039346277846366
-84.57959918783378,0.3165029696169849,-25.596587161909152
30.289034318301887,0.05233684579180098,117.25323230606357
88.8999440658769,0.8870437398869433,-40.80029864346662
-81.05472698751949,0.9139814009539841,91.87244478791168
21.634713751928757,0.9443989956571459,-110.74116179683786
160.01835491102565,0.5576591282975623,106.56092502746672
-141.0225079684978,0.9785472932395223,10.134132653561254
-126.54526897616714,0.448239556631713,226.36329362857163
91.6233178365144,0.39063052686573285,159.83357452437306
1.3972822386544803,0.43705386062150287,14.02789098696118
102.92578643273878,0.6112123648221752,-24.012661798809525
-9.814889969327258,0.5278135859258892,-9.771772471903475
2.418728702854685,0.5296350571100651,103.5614763236445
61.6723288967975,0.8478073504602187,98.85657436893145
-37.277374293144895,0.18177342680039288,135.64732987263184
34.27003417925227,0.9095376228290315,-100.5114778864181
69.54383470460222,0.8311883011672814,-65.58299418820202
61.258276580795886,0.7358527527883727,137.83468648848444
-98.37885551816665,0.7745041413638298,-29.661987139730922
-107.15169930007748,0.8131780264976413,-59.533998068680205
-159.06396593319948,0.5346350449651947,32.24863595016684
-118.67635480232055,0.30609941143261044,195.95325302551976
148.7973113840984,0.48963685477174446,63.235285564241806
-19.036819024945295,0.3489762776975558,81.70602126151218
99.59552094950692,0.5054326233006023,-7.043006672111071
-23.963219628446307,0.855151942584234,150.88519457530862
-130.80719526660945,0.7607648661188715,-45.154483562032425
-29.366548370261714,0.37079411236719884,-42.87065869763056
-47.251489474904815,0.8845212352363749,-43.56745386628288
-105.60977267357148,0.4152641512221775,-2.919386226731404
25.95265362853664,0.9623400989424742,2.359230368358701
58.11855133634965,0.030396964828098838,53.42502780288555
40.73923141525035,0.2356139467952122,-4.340060193711605
93.48590132155898,0.004787325267686771,68.02751456585163
-113.55190313290511,0.621312423913412,-104.00477132764634
129.85020790967914,0.07962451910522972,-45.036427700583474
-47.36097857636715,0.5733334709283895,106.30360293518493
181.2020857306816,0.47778779569473795,-65.24220215531523
40.25307827982238,0.528745410846016,-18.393006849846667
-64.99716718846335,0.006670575245128374,-170.40930734253322
-92.03733784004112,0.53727534906232,41.2002799189665
117.84261651336413,0.23691952731009913,92.54309817427401
-13.401151526476095,0.6149846864112986,71.99340889240547
-0.05071958937209798,0.23177734618577794,-126.37810224058241
85.80151180711229,0.5749613462736257,20.443022931093395
-9.699485795058681,0.7997982127522032,-8.97340292769608
-70.76933151422948,0.2967773449833453,-1.0461016532707812
65.86944238355397,0.36113045480242123,144.31255760802998
-18.86670636066604,0.044154989376191556,123.60440386415638
-71.14174491615405,0.10724521178217228,-32.4400498309273
32.49613034452022,0.3028238184133233,-63.72589176138269
-30.602719300782137,0.959297873723698,105.73018048127176
161.7650499648713,0.3560035262752459,-46.80921547421915
129.98124667312746,0.7775479495171222,-163.10151767961995
-236.3728237319346,0.36597017771171503,-111.91828513071312
39.4417476818007,0.25424170843946403,-48.025897908548856
40.1688511775184,0.24360064474520904,-47.98302808774476
88.13950962940046,0.0703679213209748,-14.592392746181265
-88.23822896444773,0.05081220978347234,-73.49296540137163
-21.91812980270548,0.737579689198809,72.94272801668176
16.20081226094966,0.6132486976975609,-35.35004938424219
32.16338156139522,0.7137292096482052,11.28631844534466
-61.33117690413936,0.23300329593955715,117.29959140596719
-25.011460302132036,0.3802082182969816,80.98317579944988
31.132388624825186,0.7175268866775576,-100.27468284389163
124.4712516937569,0.7366163169285105,-71.55495804651571
31.793647458088564,0.814875455669601,86.62091484681017
99.81452098261498,0.876479727199191,91.99843865056661
36.3014023308479,0.9229630999660867,84.46612303613384
126.90626078796579,0.05111205525324891,-14.663998008914922
19.604934631397175,0.24389115094608294,51.7570552429231
215.89780352883093,0.03362997653591493,66.99988773655036
46.38730241075118,0.4705142052136856,-163.52794778631963
10.372646743554311,0.1490422623126677,-75.94788094051187
-72.1355879469141,0.7284938216973321,-51.97368761022856
-47.0092683452976,0.46602139512612106,-110.02433162618969
52.743186818150164,0.9564349127223063,30.962538902256675
54.535773693116354,0.09919671536405661,89.00152258552923
-227.4037329166155,0.7980018267071854,-24.08299214558465
42.377867215135474,0.8573663744978367,9.403586407508246
87.89865923743304,0.41862343028453586,199.7067915777984
-145.28140462418054,0.41976834039513666,20.842943831652764
87.18516509265903,0.5432942246243923,41.61621645308431
-152.20635134361632,0.4355242421580743,43.58629663975792
-35.768080928031395,0.5034103393599256,-87.22602568531642
138.58360010848656,0.7959239672351489,4.313641862905421
-208.08169578917327,0.3808259491413971,85.9718132364284
109.3977336956082,0.6994053066168927,-5.228648929582313
266.8623651718708,0.3945340870872648,126.26809174348841
131.53198759718398,0.02584909072849162,27.034249171710012
-38.57956454226193,0.4813427943998625,-50.51123379029872
13.149534836944712,0.8692529308388628,10.359033360461869
48.27927178098383,0.03723408034407616,45.108973742601705
-132.2090290506992,0.7990226946194279,-155.09913002985695
112.08933333402142,0.017592646947217294,-20.836359281906955
-66.3064883250792,0.692361514614221,-56.565758457926584
-35.0647034319308,0.8837004133701539,62.7440877357054
159.1806847629051,0.6102159648336303,-31.55890551680049
174.35268215049675,0.4662425816198761,-36.99782405411835
-20.667355533439668,0.9272670972699761,-144.6155576676343
77.12477141331712,0.016200304541924226,100.99421619102009
81.505118158836,0.5388987691243832,96.48670086288152
-172.3509676819751,0.6816186507911874,-86.80029243282384
-136.57664680407575,0.9816915117810309,198.06511552691447
73.7750412921162,0.5807235344334295,-20.936743767919435
77.71839989785691,0.2234596656414678,-175.52002546296464
-76.19024036954701,0.05377798660753441,-37.15327070422619
-32.790271693437404,0.05172897598119419,-24.10129754436563
90.02487385533628,0.7609897486020627,-101.45224969095563
40.9268099957293,0.6811149307497144,-211.3540860013404
-123.29337853797837,0.38833464523787486,4.109261322680556
54.97324008512351,0.8625316214460773,-119.94060173919145
88.06496106126201,0.20900087763242692,41.6489889871709
124.89011589040567,0.624885891549349,66.00646835883897
5.454262184684831,0.2735946317708713,159.24072235880973
-70.4867124846737,0.7662914870957395,20.427133184814807
41.03983331844914,0.919274962979624,53.63572502648625
12.822879003212527,0.7571622300735372,-68.017802597186
83.83996476757306,0.6447475029308383,8.67169016100034
-76.92529188809137,0.8182648882349894,54.50287448423086
49.56260780623818,0.8954115383062035,142.16316884455094
-28.280292932997707,0.7223995568420939,-96.2896649664396
-126.95275400793776,0.7483293686584251,42.78930540176683
2.4514397282004654,0.10438737628246053,-61.05602911302418
-212.80715897307755,0.3015093169229164,-46.907470644660044
54.087284700818714,0.5616792847783244,71.48635888029547
32.93838270661942,0.05900997773594785,40.25325688286283
0.19233617397679145,0.5782426999378487,35.678147982524735
-24.882944057557268,0.4762580196789368,18.351383828828194
181.72805183304985,0.2021736078514046,-157.94000275327542
-141.88692860140353,0.1623614570864751,74.77993881961778
66.42320799386108,0.1490034252716137,-83.09829752562972
-136.1533096920162,0.7443405973032413,-112.70478964459845
22.565821096728083,0.74473668519233,49.881527061699316
35.45130233865598,0.586783949400487,-208.41164774594608
-186.00522896637074,0.006447234608506269,-12.37296100750548
144.52986480219315,0.7057357367417544,255.04646187868693
62.7350156558568,0.19704590330363847,75.68057723133876
-179.71240932785318,0.5770432698206854,-176.1667270934754
-76.7176710861737,0.5995961236203433,-102.06299717837146
62.55590309303035,0.3364764305461708,-38.97756087092186
76.10847400125502,0.8341397914427541,-3.324083791728493
85.4087108861606,0.7201758881683422,54.12205715994365
113.77862795564238,0.163904346318679,-32.03330673466156
19.764186607017656,0.46073749162002875,-5.242713586962867
82.90485359189319,0.8806813681283883,-209.2776565979494
35.46273380263235,0.9083701408141509,44.598754570304536
-91.30111328190847,0.271489437071721,57.44143177549115
37.12009248389632,0.1522639445448719,-44.05281153117756
-73.21235820442021,0.7162226114779453,130.07643816377424
110.45333158275037,0.01040098816959123,12.524295379771527
-67.64589339109607,0.16390585289614457,-24.79779453113101
-21.62454065807281,0.27907867007893883,-62.8785306046174
-74.59198843160823,0.6629041128273285,65.4090145123594
-4.602899791788072,0.23204679017878493,-211.22669805740225
-120.93460400119191,0.022098907748183794,42.274126239707115
44.83784741816641,0.9863484165387939,93.10111472114215
190.37929811550794,0.5236187738361265,112.32633841485449
-158.05643255449192,0.4103921496012466,-58.2675211917412
-63.157985482590874,0.6962163458497742,-29.59725682981344
-82.81610078560482,0.17086034319764365,75.52998060892128
-130.83768937789281,0.9533193320754434,38.937860030860946
80.103672267609,0.33835978701763314,-43.5262118597409
72.32338405181532,0.0505333297345133,153.4615295812316
42.768424594298985,0.9781707535470302,-27.77008544859428
-52.85972937662237,0.2800616269317524,-95.2137444171779
-86.54566265414726,0.11945396994865531,158.78234492147942
48.790930348645304,0.0450939323375541,32.325340036960405
-269.2199746338445,0.7093059537250628,101.67204399661114
-26.7131506243451,0.6185102581940156,135.33254516119746
231.30974484379658,0.8710895481789671,8.357213736600542
32.57543139688913,0.1595289459302055,110.85866831190097
28.61307926355718,0.03914043179219162,-96.16770913687269
33.75208140695292,0.6308512972632762,144.22563447031982
-33.62294189821348,0.5013698935362492,-118.04016228691113
74.70868035607484,0.1628053677586132,16.81847486009543
161.89316288071456,0.4313281881696447,79.3938220255416
20.056270719879667,0.15459305352546227,-35.371500492582236
-154.40879634588975,0.3353033430306439,-108.85764994743792
-23.273260584447304,0.057471668355027816,-140.57440543674838
-78.57969338171785,0.0837864145662619,64.73920656082521
28.767609149258256,0.2797930454098223,-62.05047866904471
11.991085245833235,0.09177488137397027,140.52747684781374
-56.53555241140715,0.4007197856859621,50.94143285667311
32.61270799509347,0.9712409252999396,-29.08534056038211
-132.70910012712994,0.048982457463412676,-34.501646729104394
158.00640133244715,0.9149031088152227,-236.74652259169432
204.15036723616132,0.011406138780413078,-154.75009763500697
-76.79413005861393,0.8136518507943294,11.600251003386589
-37.03150503579682,0.5225791817736196,79.43521183496401
79.48160489388843,0.17466078908368798,-196.3465469299195
-92.12492960661544,0.9023992934383325,-79.24949364494506
31.326006648160675,0.07055348659908312,11.876150592753959
-31.65084855543751,0.823582413920186,-30.425307833709937
-201.9571197198315,0.4380895098116968,17.902885479362816
52.37674599841694,0.012595507413997509,-68.67017519770073
-66.90447648712717,0.46707934514492033,233.0305440652469
64.08683883522211,0.11638506131364013,-11.360231153072071
-50.47037788136406,0.02164950127320231,81.29398711108703
-179.01983287473456,0.6633671359089596,65.18387872746736
3.527893060412468,0.35437275570337257,62.35308941367992
53.43251105003388,0.3760060076111926,50.96994000378717
26.54110249928997,0.6829560241420309,200.91664534584316
9.636569144723913,0.8990740634512537,-76.05039617252834
-17.952446018198444,0.29135809170785565,-96.84820623376712
210.3085426241663,0.3276263694304803,-88.79965850434654
122.07002877793722,0.7113078283779554,-61.32170834837871
-145.6752544031508,0.9866444674331093,184.97979579900766
-0.24640490565086434,0.5817131385332314,-96.05970700393279
-91.34345382143417,0.48902674945894775,73.25616139395528
19.887306407643827,0.01876141337113002,99.22093156126287
-61.58737917159023,0.7802051273029627,-77.17421223698143
-121.3049608601826,0.17296616266501352,-24.278941320835344
54.77760082914015,0.2453491574976301,88.35967286766086
119.10113520827115,0.970594696707019,-134.541892438719
2.3767082220214744,0.4441076181304695,-155.23391695978904
22.228225789146215,0.9785759103996237,-118.47168246354526
18.63163556078245,0.17679899640693264,-37.38280745609603
-14.591835684896045,0.8117334909226421,-27.575285044429283
121.88324704373005,0.8412845718860833,62.804757870646874
1.959207521059015,0.6829994614733875,23.516961202453356
53.53395728663355,0.2668929753515883,-39.715338608332615
68.29332656390173,0.47443769458537643,-56.98278075578298
-67.92350504160397,0.9468593166313513,158.40820042025086
54.80475478651521,0.09471938580973216,-7.3064735806556005
29.75556188965357,0.06083027222232218,-37.15038534261612
61.6154982452802,0.1413810881840981,-11.831193681859135
-107.07989793327752,0.0786632033786947,-13.911375762716341
34.20143234010201,0.09245948965945028,-105.53364628199628
-43.40424368905274,0.8443979483494698,-45.80514291260912
154.32314513964843,0.011901666075281314,99.66846150627687
118.0593625269054,0.6232112847622572,-109.72445272300506
80.94952353121185,0.22722522634202713,-153.87696653418516
81.69854261121739,0.6388235357645687,14.380082393445766
-176.59051507116567,0.4997750420153496,64.60655017928384
36.34407773639628,0.7571777618991594,-123.99490085622095
-61.78394715207068,0.6982619132682646,-114.61689813817244
66.51372833641757,0.17572986063950768,-72.28054026259161
-105.06011396200437,0.12687552888805342,-41.032375279122135
-67.51386654616815,0.5349203355022287,-70.24945838454597
-157.91553199044995,0.03413736927052968,-254.1369120395272
27.925548757506853,0.8758185765263855,-216.20320392899458
-114.42567860144625,0.578385263345924,-187.46469712710737
72.01391768127003,0.09166040510735474,-121.87055531435618
9.409383350811463,0.6185005511041524,116.96211605401243
7.219081128231994,0.9271300216387084,-149.81725615878582
-47.67612865182678,0.3523896788893084,158.14870762819555
-26.039552691238416,0.30374959531669754,-105.80782907436972
-145.59683097638384,0.2534228612612148,-203.74550106432343
36.528796696059345,0.9399696441264334,86.06336905676189
45.76435513153091,0.6552648307024408,78.78528676708473
62.12093191316177,0.7183517702796921,14.161242602765325
42.25778237414474,0.8438621097686307,-137.7047045913927
-122.5526411886952,0.042313846253516085,-251.1703080451806
-17.31065428547614,0.2731573715402018,-6.702786480172966
47.89528589843922,0.357375049420261,-71.64610685023615
-126.44053981246242,0.9443170571517552,58.565838338602994
25.767945564573246,0.13497626252477868,8.43025220200923
-89.75579752945465,0.19695908772865378,165.76680244426834
-78.60670435888059,0.11139295552843753,-242.97071220069043
75.71533943663546,0.8015228567341305,-126.6844862986981
49.64274494459271,0.8249419415606982,-54.90425928814425
-13.586472192627019,0.35073338728927084,42.20309732463053
107.14368902399345,0.610130753053312,97.85453992285935
-65.81566831752176,0.3727019275072051,-70.8024332924337
-12.2938656913862,0.6544762283060762,-96.28690536411233
37.73689173586593,0.9746823908853518,150.40097293790916
22.971758823359433,0.4668791015232171,43.07218319612558
1.6727435937085118,0.6201322230302266,18.345166559515587
98.36127579263095,0.5661467752533749,-84.8452667444169
83.94159143449528,0.09126585204425741,-87.19153664338712
66.63547487185839,0.37462392816057444,-146.05765862854997
60.40940527211004,0.7007652219468851,111.11937165830861
-3.740024361263053,0.20695387316464686,45.16077917971729
-161.3139412611406,0.5927777868656222,44.97819162555778
64.54458414304791,0.7542535300830329,69.5041351425565
68.99824062448454,0.5865331601266521,135.93245287833292
7.815960368698352,0.8165643139146649,101.14272797489652
112.06450808416062,0.9529742478331271,0.49358987408919575
-14.133103599323007,0.14078267418799817,-178.9540847621872
-149.19443343800512,0.9883429720850544,37.35032237387361
29.896330353016104,0.14159045027040174,-236.6496405607177
87.23486825177163,0.07441060068166039,39.52726694398873
-47.75828930041569,0.5674834848277497,-40.235335399741636
-6.98442560065662,0.5673232199747064,103.28772162674791
-84.01533514508091,0.585318556252649,-14.055495147968266
-134.6944347667295,0.9045782445144506,-118.74906048120155
67.38283395182827,0.7257204903959057,8.732707135297506
40.8596998891522,0.17540907864311794,-134.01441480504786
7.38211973611938,0.693759362430495,-183.61374146754534
-130.09181662952523,0.39396848256634465,7.763987366137543
-164.51814911786173,0.3932616949355211,39.3647443072583
-4.899578241320427,0.43255925868625444,359.35092715981403
-11.770965986476304,0.8252173573643934,-112.83644547828506
92.75592966654317,0.6928713871248852,-57.71934760230302
130.38753990152375,0.19962296398102675,-116.8822241952987
94.69709255673143,0.2504873865754138,113.2121188827337
-23.265382288977264,0.6572665758826415,40.55204049694262
-87.3263636122804,0.566874135300684,72.05068994861922
134.2331303885294,0.902355686346144,21.83838806853016
52.46706866118714,0.8769312452286973,128.1848358634245
56.4550153920335,0.005979803497570435,95.80708088880458
-214.46807749848455,0.4479971398604077,-122.8505720154436
-14.315023354215711,0.2620383600694757,92.18690198596097
54.07216249265802,0.3732361807095125,-94.56448020592114
98.38822591349576,0.21020502614213377,29.150052862961445
46.84384841914436,0.40595220687687694,-148.96691774271946
-128.76501762577394,0.9424221471814211,-117.54935892585027
202.9067184380652,0.761725507432429,-49.44115900721153
78.00026760743025,0.7982149846584018,-93.54418840555864
71.95353826794391,0.10995904351864394,39.26859629908114
-108.25643386996117,0.7112003520002149,44.629870377447936
-137.22808209593666,0.2999137406051171,-48.24219325543299
113.47974259559896,0.2539306366896331,137.33474010616249
85.53205924986287,0.015407568893112233,-39.33417575422923
-83.1314613908508,0.4976326800855838,-4.232900671667207
2.7541378872216002,0.48164511439699365,-199.89627832978434
-120.36505985603058,0.7721670196451704,-205.60888411659576
262.07364571296574,0.5113186228012324,-101.2727911034135
64.42603859677317,0.8010570322130377,23.62287846098004
242.40443920108677,0.8381342696220733,-1.7892015809313173
58.22023534414882,0.17124973418365375,-83.2468261976698
-5.2038683889961455,0.2280829153844589,-77.09427933142261
-64.42826790171199,0.8899710702199447,10.83455441925497
13.472321753873992,0.6220823650880719,47.797951108121154
-168.16115080067107,0.1947953159286041,145.04877114523322
3.112534293500915,0.23276689038161902,-16.772262743373005
-131.6087261741558,0.0005668516998469375,-15.026952958210241
62.34030865011258,0.8647047983616734,-69.43096348646884
14.85500008079987,0.771113766412456,-72.37969390072115
59.22011349485429,0.3468646274726439,-12.007573948801568
-179.11225279317128,0.26624498661651586,99.930763993927
286.8037878200773,0.3422614682945121,-51.63106394908643
-233.22226553362106,0.20040295022154297,80.27261679304527
180.12594975439075,0.0670842660992641,-47.15697623804848
-68.97808715410076,0.3956948099890586,85.03456364468121
423.6628232733591,0.2960133366822051,44.27763658288011
-14.662215331559292,0.3647968851045965,-41.58190083740275
-54.38937147580019,0.9430144183056907,4.97243474636414
90.63426359869275,0.07498468654068313,-1.9772822934884138
60.366217247731754,0.7125900221387824,172.36779101531403
-37.67391746402085,0.031221205941313945,-131.56191297007922
190.25423604732427,0.8959459455995794,118.02419063025798
39.88073747942595,0.3389854308314574,86.72568467732941
-21.303372040485637,0.5954884691177892,8.506626963639501
33.427284531438886,0.6538695302503115,52.20567968979981
-6.398163063611537,0.3852210514262616,-69.89288904042816
-26.11251329345501,0.474061961759054,22.432735495764135
-50.22076907659591,0.33720412638169384,17.488910128034142
-176.96360507380163,0.24939627771804418,-24.003733436195105
-5.305356252969656,0.2218750722627515,-92.34017197917048
258.15952808936527,0.6290564839915112,55.909345359013486
-21.70266557298979,0.028160036469025096,-102.99293875615166
-21.244337428813687,0.6866861386477644,52.3467994990694
-76.68735126655552,0.6179684435165257,4.939366410290265
46.359599341064545,0.6468030413145195,-154.83882081154675
165.86757237061227,0.5446870739472237,41.267013215433586
-22.120569911935295,0.2156855596633167,154.07384324437157
-42.07079496980884,0.8745371326523455,-5.851354926400859
-112.39580768098203,0.7643736928583427,-45.72331426333114
284.88981470521065,0.15230608861762318,5.779167609607211
-10.624099972865302,0.9149830027055187,102.77372298306346
-75.74608267584246,0.16251004561168636,-60.28505096163096
61.616757508277274,0.8872961787600394,-74.3015970419747
-12.034459963682389,0.5752227642877086,12.363378443475444
-176.79423496992763,0.36140510053245445,6.874726199957302
-121.72482147206152,0.4955235681328295,-157.96323976008793
-25.21401911924994,0.7729617791621102,126.93160640623384
73.21733745213788,0.819217270534832,46.984609980842365
48.772327106954286,0.5521432221350094,129.25043469990885
10.529258447769504,0.3746982364408451,1.366877501556618
20.17795640334513,0.05121825213508446,-134.18134057865473
-71.96990931620282,0.7041938046263976,-69.5438570195508
-138.76486086248033,0.9490254250162792,-26.427015111245154
152.625715998867,0.21362010217394,64.15156953524995
141.20308588603888,0.31215984627310955,-172.17549087607608
-23.116236576910175,0.9560852528771882,-151.7517934461828
-64.2325608264179,0.9591766243320057,6.385501476813406
142.95755248270325,0.7638687108475497,-241.2218132007982
-63.054883156824005,0.15052780660068,6.740177657929286
-23.416227703953567,0.73857413363482,33.577446850653615
101.23389773753605,0.09304319338420242,-128.32250639478983
144.60432883727685,0.7210521875901228,52.32723359702183
84.0173450285625,0.3269700783734173,123.30671434205824
67.85891256031647,0.45889846461524153,74.89156008534287
14.506544546053194,0.4808416638585482,-60.32701275525638
-25.706363373621024,0.7068526346573173,-141.2496557526103
-50.1219989838299,0.32197815306564537,-93.55956466988077
159.4486169421189,0.6229554069183957,39.30204832327188
185.31107017418321,0.6578312608240622,-217.3664635025462
-22.978545599075968,0.625514388358246,61.55438382165453
-131.56949160720026,0.11994162530131935,26.809521562317496
188.87175792760905,0.1799485702335527,30.151038780355822
-10.134368770153209,0.11550878302199608,47.49935822712223
-117.85834329522649,0.8277550659706353,-66.96065414598942
-38.46115000684861,0.9842656287688135,-67.33699095316173
131.08563111446142,0.7046387926205556,16.809382439200192
51.030728636806785,0.8588810436097832,-28.6132654654084
-28.62835348866264,0.12639779728806688,-66.232723049555
-150.2569843562537,0.3716171757389768,-17.506164638173864
-75.11611138117958,0.8023646245740085,110.18403319845847
-77.57589832660555,0.7264478661617412,-108.3745548568988
-54.49710293556643,0.6468414090918669,36.78388651377949
-161.09231646405965,0.535134472782695,-20.99240330262555
49.21819168308238,0.36429204448599417,-114.46229211743986
105.6578450828799,0.5727573625519443,76.44452196466503
-104.44017671106023,0.9371164226416815,-59.04702423217508
62.87556855759783,0.7296692301949951,8.233347333517727
-7.326225038904284,0.3839428706884337,63.14804007173844
90.2654778848616,0.41663454874781336,17.578974434586605
-90.51992919153847,0.5796004252808159,-1.2969082899220952
-51.43280705862821,0.17265713381176495,-18.86059316216325
102.79509133879421,0.5015940479712317,129.6661179428135
203.4170585963378,0.4226387779451799,20.453791399828003
-158.34639587234182,0.5032497970716917,92.29938260772673
-162.57789578323215,0.8787647876583007,154.31872868893632
208.5186957828626,0.01008360087029947,97.19659040252687
-5.770555733091259,0.386837475933947,107.69645031902016
41.719884749802496,0.8926833615555139,30.380250285361797
87.26183716804671,0.7534376275763066,106.46812228202975
-103.6726061670417,0.8424835111576204,-46.36253644035409
44.57213814431882,0.5216523884418788,52.735374241073096
-45.22488037901843,0.4803810855084162,-2.0011601324589128
-180.19670945540713,0.5309071573957156,3.1986380791629583
-24.6107619081371,0.46841500456734386,13.757130701851858
14.471436418883018,0.890150948978626,-60.98016552762719
28.939185985344444,0.6028002330717026,182.07037201686526
-204.95461756833322,0.19674380772379463,323.267146487474
88.44978894689325,0.9855030841437761,-77.52374208135741
50.11310689224019,0.3234343155792888,81.684877077409
152.7880749336576,0.15464509498424273,233.43388446108202
-77.62246750914636,0.9010855107227996,171.42738827743577
-77.11707290891813,0.7758147952542748,176.2617791065063
-66.8466429628516,0.7801005120150684,-52.80005195813364
81.15316457299758,0.34409678027575874,190.75155071169425
25.068412853059197,0.11136996265700227,130.7178987199605
161.27384368143473,0.8947594341566918,-17.68282012559394
-154.18688272819983,0.578801718088067,98.90056532364977
86.32228305013224,0.2056968413984701,-86.50048885267877
28.258414704989406,0.7472333510337164,-70.83792396862361
-27.829940461802682,0.822796757058192,59.46755968555472
43.508796995162704,0.134332255269071,61.40177685166369
-55.22422519307854,0.8127935693312803,-98.36958762631423
49.005084210963986,0.572605391078461,-33.28842922492623
-192.384490280441,0.5674343882565538,71.50248217998625
40.97163100928521,0.23707439106920702,148.01666083712274
-110.58680242301757,0.8133909781627385,81.51252453954348
33.1230786414559,0.3091317282694114,-43.69806696261828
-35.82768310640142,0.12229767970792982,55.454739813048235
53.79990275998572,0.838170065690098,26.95536746029985
-46.44429775505497,0.6561788581583883,-49.6530859628447
-187.60621889850606,0.5369915628586801,-92.76213715705592
-133.8087054488315,0.40016567528572,-58.77462728464974
11.491874360199745,0.21557248291650577,185.67409744479545
86.50624024499632,0.5319621662796127,-52.98047612767915
19.272545370739238,0.8935447431532945,-24.282616262179282
40.84879537165402,0.2158001182633491,108.68658303030007
-59.649095224419945,0.48159387878906246,25.602404146966318
51.660969398937695,0.1858002479020484,28.30513294584674
-0.5869223750424776,0.9984703764339086,0.9245490993340617
-166.12171179513953,0.7910493591716936,53.55236982135894
-24.223886830619183,0.4906514474106781,-17.335929841170262
71.17453503664068,0.10967033377424584,14.853269872156377
239.20499358254364,0.6072170202132958,-93.76670607105049
141.32779488978827,0.09190096630507893,-116.75672868655798
-78.47602052939527,0.727340529939697,-33.2493149149953
38.50480986689822,0.9816408263432231,-98.53290337742578
63.518369581336465,0.4053077227434956,-78.55812898718897
78.08658480150855,0.3983524316430326,-123.38903901643137
83.77742268894734,0.5619242443302269,126.30468900266077
-112.87144065910672,0.8824110159989126,36.53704331629441
197.85972710783932,0.9910712487555238,-77.2327860097042
-81.24444074552109,0.3880595124358993,-3.084453388428984
111.46364803049184,0.6090281060500252,-43.83885247808859
-13.712718529742999,0.5209359535592613,-0.8792945295476609
66.47654426780477,0.745602404678976,34.04362821744689
-11.260863418452505,0.8768262469097439,91.91505140359426
-94.35582410918062,0.04280520386583897,-6.015907092161468
25.948169881998563,0.2935979086345598,166.18893752400817
-14.907172004439461,0.6338775132037678,-6.24551279479467
-63.20104743769907,0.37916067738330184,-39.84367517038688
-110.1253791379736,0.9444589025705699,33.750455629544106
80.82103969341722,0.9243368943611593,130.07678900768332
-69.74762102409431,0.6445785584970675,36.6523814150643
-148.72312198794197,0.9869426258339801,-48.12802121238597
-1.622788894955764,0.9381991484151629,97.57046486088757
-11.92649017124629,0.3532509017715827,3.4913395911469176
137.16260661119588,0.11219663247535594,-50.36802470154903
94.97572898623497,0.8279509311124934,41.75809828627731
95.62872589384827,0.5960793278143828,157.30272992560123
-6.883965260086952,0.9087094326902424,-95.32480636176315
34.8128661233818,0.4203467437041635,22.34235605298919
22.755027906838382,0.7598668016250794,-147.44383370236923
118.61656724628638,0.6062432173106633,181.91591363766918
-72.2968759185782,0.939810785283048,102.69008765493157
-149.51672059494854,0.1465170784992713,-4.6463503347052155
48.5150091807914,0.4103147789975903,105.90670338539823
191.25154017867018,0.0704937948575618,-41.670548077744925
105.20802137503593,0.21537812664438438,6.506444348300403
-66.3342007806533,0.7142226191609978,-81.52234758517665
-12.232603187253934,0.002454339068868716,21.731869859884732
27.656065324911584,0.5794547522599784,44.98971705721178
125.74810573141613,0.7115040450762032,159.05765876843518
-139.5945005722287,0.6735567782142151,-47.40139060530907
101.66291259012394,0.6833576696774971,2.274314300720855
-143.27885879507213,0.978623380374262,117.35342121049668
-24.61468612094191,0.4924447187395282,-133.7460299289924
-56.94486112530237,0.1845390426895438,-2.9505617695532935
62.08890908374587,0.04627153845758181,-51.58184591756461
128.7980403950906,0.06587209000487948,49.85451518779323
152.1443648201953,0.993852950926022,-65.35160091513397
110.49508116770474,0.06396632364196819,-64.64133857463865
-44.1030284190586,0.11780432518966366,74.69295943809587
103.84396354224268,0.34017703560783386,-25.046588045810093
-222.80815934670136,0.6443013138806817,-60.60566276392032
206.14041788945335,0.9489148294961918,-33.042223858052296
64.13768502487903,0.7903250285289789,-0.2164814306030388
-20.10660935971343,0.22105440831044565,-10.971279596481942
-45.56396003310305,0.5991926071088348,-85.52759190224471
-17.142616370143802,0.8573336846433242,-67.19488520377838
68.24332647892093,0.15009098619124506,49.70777444694699
65.28222939944438,0.7804173446066182,61.20806839100125
-89.96162157252007,0.863754531313541,75.76066155171344
45.84108398891222,0.4639899347688321,9.488507456447262
-16.919282787324835,0.25213098057624583,-64.7107044402922
8.306738262604352,0.046850501684516876,-120.33787252589454
138.92957504219638,0.8439021312495883,-8.575121406849462
202.14614080480396,0.9780875308080905,25.690195559450117
-37.73416406276964,0.5312838190754481,-4.24067828241077
-14.141109157863921,0.3407548410322596,-41.75907478747794
59.0275291236266,0.14597481538615886,178.25053147180955
-189.11430755427244,0.8541826570973033,-232.98718507106378
3.5123560865772863,0.8763193185531882,-63.18438917513273
-38.96675195936889,0.6466721299225237,-66.02577364472218
35.823865027317105,0.329775468950529,59.40492886183757
-179.30922760256288,0.9105963484372356,37.226256106101054
144.3659802522941,0.6460272682249651,155.81284270145986
-28.464693125308283,0.008541674217344086,-5.007563443694241
-39.7060161910984,0.4790373318987319,62.06268543551803
3.669392872442432,0.6959000867950865,-43.69530732297063
26.316595135546585,0.4086439355374768,-80.61056242448363
-79.10541225586046,0.11190972774444063,102.02503199160236
-110.15036585237017,0.6398852173319121,-24.592136487692702
-213.28444080368064,0.7302313083079712,-33.129108739973404
43.66630578048791,0.11448589929678021,61.61779616181372
29.802429991291085,0.2111579907058988,125.17515297736811
-132.7049086491904,0.8053956499844047,-28.539006339621587
18.678432905667023,0.7653948421864178,-126.79941071990528
-108.98210599131065,0.26447434755379595,-155.1226410529224
-193.26851983898487,0.04869884998531615,-1.9299897461877304
29.488284514311005,0.316586512801882,292.25635674116705
26.37267965018927,0.3223791941101193,143.80637182994522
-8.893710634905514,0.41602948034814313,151.1430114007402
144.60005639582812,0.4724104684272362,134.9505460461671
54.34766197079581,0.033633721555534124,-184.5646204242954
22.510385177602537,0.6349772707497078,18.681632670739255
-105.47782173443552,0.6314236569614643,-39.76025313841901
35.0520925126753,0.9406209431871032,69.05272448288056
112.62359273728919,0.0546119662490151,-145.71827939606362
-132.54691266155217,0.8979714583045255,97.02054694008162
-27.653031214475483,0.0072761612359275585,-45.51412321460841
299.55419325880996,0.08960897983428395,-31.144264015055544
48.985499307280435,0.33666238994422004,-11.27588343231096
-68.55834484091308,0.4359090125758359,56.427861858924146
50.191788661956025,0.4465376316744787,-118.84888421998983
-10.675372774737333,0.4715318639931543,120.75904857847215
-39.919282220426254,0.08431305716765758,-25.66694643664908
75.46719477367331,0.6408704184099897,4.361104894344343
62.47556760368821,0.7177445455543159,1.614964829863939
13.58127024371779,0.87081889368856,-91.83963106109442
51.27475762900615,0.4206894380825241,188.0258291918022
-28.940942096546536,0.6672747054389608,-116.69665270307293
150.85038665191092,0.7746512034353684,143.44773415196522
-83.00226723651494,0.42551316466124534,-5.992954475174991
1.9961561558258483,0.9508143214023593,-22.426844903430894
93.9777562116853,0.24645390223755115,-66.80337160434266
44.030626381893306,0.3080422501297686,82.36533604979508
196.71054229437328,0.5133280688385122,-68.57435313923536
78.41199928979604,0.1986954877634851,-32.42167223625408
15.389558060248069,0.602617064082114,127.6677039354585
6.893116692483722,0.6016392244397979,64.23316115707865
122.33229004337977,0.5863863235868523,46.64062528302127
102.59689358658379,0.3837355062640523,-37.82988223764316
45.293627747154716,0.4217813592314891,6.510023598978493
40.977249042647465,0.07737161368318524,44.408502158417896
-39.94200513124313,0.5099245010463257,-3.1417522669202467
132.68315328345582,0.6023674916321078,51.330611528000404
-68.92137175699753,0.30212380570681696,-128.26446103493913
165.03257410129098,0.3127602877791271,-8.028999086787294
40.95189753483741,0.24148019215845629,111.88344934311809
-8.846844614680222,0.029987446817997587,85.75789694335197
137.6882440104922,0.12748272637772062,63.07323789338275
-116.37234426528515,0.23390410805499762,139.33397982025372
75.88930549023402,0.4649934759577098,-33.19426235286581
44.77292241623124,0.2372445254894462,-43.22003904571983
39.900892219889,0.8900454855875594,-57.52915247044598
-105.68226447123463,0.044794179640169296,-22.437938403771714
-65.34491749099503,0.4283805189096621,-45.44588925987564
-127.97916755972072,0.31151117966406905,-59.921240834869835
57.61405466429462,0.4112836906113856,12.624110734260318
-65.46781167851576,0.2895374474108824,106.38159128359644
-17.583833627575697,0.9600460613304029,102.60139511372948
105.51736645274718,0.2341769928895524,36.85870318213343
104.26946648802758,0.4942064799776428,47.79026384534465
75.8469476957028,0.44948762928810193,38.11931138533479
84.25580823473935,0.9710392870654551,138.40509911754515
131.15635451994845,0.018084866464465943,214.0137918781131
90.88769281552445,0.08852103772477493,54.768123327133466
108.39787019270169,0.8109116869925383,-20.016493358576565
31.75714197537533,0.7654756368158848,-12.677039215894984
114.94373668313702,0.09794658955263469,31.539647734222687
41.649428921985276,0.16022532989388838,74.71851563550118
77.10170068243411,0.12336101892068974,-15.543606142224306
-123.31342993467625,0.5308683390493282,165.66857261851155
24.877109593847365,0.2233015880345499,173.35702185777015
-201.8160643686135,0.6625477578428891,38.02485892338719
-40.92178712884087,0.9697240047504453,54.18847814622827
21.27716790745576,0.9122338344392835,-76.87201243736321
-297.2535544057447,0.6563935161290385,48.17626316490602
95.38046569523694,0.3810986971488167,-106.53314984509086
0.2998376593983778,0.25422164423682836,-106.71054039041847
40.13172447095983,0.8745056602849491,-57.52130811095385
-140.56905032228642,0.019294012470857047,-126.14521398223069
47.46036293432333,0.037888159436584745,85.01952933925689
-87.84818121814983,0.5079211937360797,16.770225682445634
144.46307216819,0.17662156934426465,-37.16909355048658
-11.962623608343668,0.7729775405546057,99.11665347514374
150.99176411144774,0.8064854958407457,74.22964787923148
-106.31503292905553,0.8408967527258427,-107.39969752537671
-10.401944549705924,0.2815056018668376,-52.42461579951462
-25.602069771466475,0.8614788658798781,-1.5267409827501597
-37.23343247074444,0.3867253669983033,-135.83830953415713
-39.78859993207384,0.15788617746343203,-127.04253666483791
-187.88596082047727,0.7960795108548899,91.1550057413194
-15.354196753551165,0.14875841420607494,-174.636274557906
-201.1710651792642,0.3065382270629037,-26.541226161423214
20.686776497637226,0.860558448845758,132.83512372025604
178.1968369951153,0.970940281041506,95.30481948097807
-34.76861678452977,0.5949094758879039,-128.88779663555593
173.04177247415822,0.07816586481825094,-78.33257922337083
3.993054679762594,0.890408086689766,51.64201903029797
-224.30939802322803,0.6287348358322365,-12.276615190279882
-38.03184197484723,0.7728714377194513,128.54454421974782
71.74238944177267,0.4501755648092468,-83.66086150630159
-27.309154589003043,0.7090454788476779,-41.079419991788384
103.11314140044547,0.8551230198660064,-139.1795340341574
168.32574585895364,0.07618091935711613,-50.45218232155501
-37.81800679643631,0.6229538249970714,86.26329227020626
-25.669194851000622,0.7041374692603117,-42.48129743129632
35.44004728463176,0.7529401907852692,10.380367781217558
-77.78140280779665,0.7220238303234331,52.42998880705675
-195.67926955951188,0.3871140315841618,34.7609367628429
-66.89020899183113,0.9526262694952001,31.61471064529752
105.09899575810144,0.028698193249854564,-210.71050848102595
-29.205142566791597,0.8421165019935889,78.74856527965729
-11.33429923933396,0.6727322675705594,97.15178117334953
-47.372717155563215,0.27362300563335784,59.80001013310356
-35.023882980395435,0.41751151755897065,118.68366710718152
48.73094876471315,0.28047821347988444,103.92206763309306
18.491390439150003,0.7813638171855619,14.01332654113239
-78.52599539559664,0.16977481586091558,40.616047204955855
-12.12956130567289,0.47097034659190884,211.19976497319647
-63.50807848166748,0.6596688488406738,0.10078098114617137
-35.9874109465863,0.8330119468792533,82.95289349240934
19.430213237988582,0.43375093020790834,-63.18778973752674
-89.16814705467901,0.17458709634706637,63.55867845474088
66.39430559954819,0.4409633829651647,-32.90728474465228
-16.40481048512694,0.39181287320544067,-132.36361844100182
41.38509548328342,0.19931297131443748,195.24674176327704
-4.788621826578557,0.48492369307742755,-155.7118202787886
115.90572668763824,0.280699718394261,31.894141867231863
-132.68403570092872,0.750038957160257,154.49073545586822
139.0961417476126,0.6330390531685562,34.72793194683768
-201.25810569240682,0.7571338959049689,108.3729310493142
-138.525125443013,0.8605962159637259,39.6415741389523
163.76008742758205,0.26997270528801787,-115.83567525413369
187.7030552798833,0.3443175428199139,8.076682601519497
70.97345161161603,0.6172377568029833,-17.911490248892424
-0.6083685112069486,0.6905692510858255,-71.7858211320914
-175.18650576310603,0.5309794353552326,48.07055324320974
-192.16381140302622,0.03847750650912318,83.86531992465675
-61.69161451531343,0.5547251376743727,28.162779338368882
-37.207566635436955,0.262930817658945,-10.105987177855395
-3.286375022806286,0.5475221386915883,56.10700188684793
-165.85037374219613,0.9000583114670693,166.12197215490343
-119.88647192825539,0.20977928557657444,-24.089223427224887
32.94301521642733,0.6401224561706488,89.46448330312766
-74.02139486953814,0.1329757838808776,232.5808974671736
131.6520206560017,0.5588009578408494,-169.47590113153765
11.86185615794528,0.9616130640502555,-52.384835983723995
27.32942605401516,0.6011228147789076,-129.16848859388048
117.52092353745822,0.4961602595328535,190.87977537323485
-1.3965953045412511,0.7209740556504847,63.86488828448796
-265.69027466178574,0.1558572567645018,1.1287772810449737
7.283275179738799,0.46358535068568474,-86.67830059759
-23.09321507580087,0.9804213485746233,-109.13542479476979
-211.20419492750392,0.1842440024080575,-20.067087290865427
-35.964846211389755,0.15225563530830855,22.32936084503613
-6.834687807517984,0.33972466564166937,-61.154246216299704
130.15574303916176,0.6677597044321381,-152.87490823404363
48.075376432211826,0.05439550931649828,10.062248184962245
44.25680943707045,0.2956050113556279,-2.3858559820742906
18.246249977813118,0.6529509868722946,101.40770760108333
114.82356079295704,0.0186003026910182,-233.86381564623147
62.53675351286064,0.8604023018894397,-157.92239376214084
86.9965801597048,0.2949661162777568,-114.57065251358371
338.6157555833359,0.8969030548296478,180.9018383396771
37.46494030213867,0.6647938337414117,67.20843872695403
101.36638245163954,0.3464439129836694,12.451268723017746
-3.5160922632982636,0.7690541767635641,-37.626874024586456
-49.80675905089316,0.6119814242908054,16.523440378906525
99.55111876581014,0.679475565652802,-8.658111327867262
7.209382741615493,0.9014142050903239,-165.4045571052122
174.51040853913227,0.5665182257030329,98.65847784132367
42.773677117020476,0.6121387108410018,-0.03567971704824564
-50.21666490295388,0.14430965361937265,130.87343322212888
-15.325375613358574,0.2302460754147203,39.739673999774205
98.87878370318258,0.6202903511005682,-256.71377022189785
69.54167902645403,0.34678622056332653,-30.667416651398447
-81.61838954210005,0.11143242200125536,25.85827344404273
-12.327802222746895,0.8592990175125644,-42.759148431352806
-35.496607873591714,0.655491363366146,52.066559694926
24.678755131199022,0.1331626503781388,-41.028440721328806
-134.77471202874221,0.42389002682519417,23.38565776869369
90.51584586989381,0.5226642509036462,-13.993578355316954
12.235703987057661,0.5686766091205427,71.77582188332082
-15.11441307233024,0.9905019815358215,53.97801387069845
130.42325125698653,0.9964629342679081,-75.83669065912002
3.1569038411246684,0.5113543874312978,-247.72160215307574
-76.30951430411291,0.4208885900142997,-124.34557564878563
72.19273817006952,0.7403138353200571,33.36329006437555
128.9060949182413,0.15539799017142253,105.33373917005684
-50.039601272043754,0.5340225800875401,21.10728334033372
-83.16538119670837,0.29750044429477507,84.17511058341171
-146.67133120456307,0.9169648030550596,-7.378984938191987
-183.72768278165205,0.9205179151199734,43.85176306977384
-127.96159275250889,0.8886526974872195,-11.393923419762778
-35.3687310246834,0.44613332081380097,-124.20039314319413
38.158642979254346,0.4015648984159962,33.3947995225829
122.01069410580816,0.26725188900677965,69.96168594282895
-47.091509618050004,0.34642565478268317,118.5348980252414
-365.4299166329925,0.38923759875628405,159.96938831537022
22.365355883968185,0.9606886843401317,41.61016420811918
20.637255103935427,0.5283089343360439,120.20706869971019
22.407614370918584,0.23004948995078034,225.68591622763026
-115.29709848560452,0.8449719924199428,-16.919118905379843
59.3639680273896,0.5225364149617262,193.76627487931512
-190.7115385365906,0.651429832912406,-189.46466715699466
12.782775297405802,0.7884356802941871,-28.186189772804347
55.95589304649815,0.5409673365647196,157.41111258541514
113.31027384490207,0.6255505522554009,20.50833152643624
20.39795789776296,0.8978632454953105,198.47946841420344
-44.384953989897156,0.11685745101940137,-159.07114104895695
75.78249455083028,0.7515986252876433,-104.97800041359903
-63.70143078370318,0.987302889473076,-47.59089454097513
-81.19080134888573,0.7381497243176415,150.76623617815847
-38.87273451477371,0.8301674473505464,-35.80850809373391
-44.173129396719524,0.565890124388744,-66.71631040742285
-43.384248590181514,0.9657749452422832,204.2841759398599
34.58207263045526,0.8930926955008037,-120.16180796175813
-154.02410674454543,0.8884984899277055,-64.21470435570615
-26.127718669994344,0.5889256606905562,-16.467255270995068
35.26334194443025,0.1382318331442386,53.52327544492811
117.16468151449766,0.31193488672547054,14.352259073898255
82.77446250333821,0.27602033828028427,161.54355134299624
14.93070670178897,0.4799294338867027,141.04588229515178
64.44258490008691,0.6227246137588849,-3.0886207188196435
183.29771499013992,0.06536557058446013,10.058418088612289
-105.8469855541545,0.5344996267787963,18.3292078122197
152.6265687084748,0.5263506009190411,-0.8475607296408341
-144.52424730973934,0.6334135564514098,-36.38997535520574
-178.93558961444342,0.7183480928873541,-82.97694839098324
154.89315714533126,0.9737108862911954,134.16287444097128
150.6803596781621,0.35794440876925226,-21.250204247565943
-72.8782829176817,0.8926292328893155,176.3660871002451
63.16565859650814,0.005198316546510262,124.21357197404441
-110.64290261305987,0.8545943466028256,-78.24877025881725
-12.959550022268344,0.20439190788566042,-139.958651798571
-80.11337204973034,0.6737757708009923,75.27842184601852
42.99866044656503,0.9164026398922629,67.69864027533119
10.751131162131392,0.6246701024295307,99.39481382173234
63.427011384747054,0.8202644650473033,-153.58591726460503
16.48848235842295,0.7509423791286607,-56.887470741516545
160.49814215185373,0.034819659615427656,-122.78537568770369
148.87126083053855,0.5906470038273675,-97.30973063090967
-74.49053170540132,0.8218579457574124,-66.4518079398835
-92.03914487701887,0.5530401277962026,-42.59274686241311
-153.75321350776647,0.37605430624121594,51.50866798267545
63.00836794130138,0.8212505378784625,-89.70248593511569
-154.3658171108683,0.392221457474654,-118.23157856910649
276.99019757528987,0.015170884726648626,96.1978768376349
100.71459762531055,0.41240322823583997,-53.04975422576321
43.096875783110185,0.40255318552417363,-88.14384486587309
39.21173498627318,0.2829193754703264,-34.475839267675454
