-6.615068451110747,104.4520395487779,-1.9940865643469439
12.453737881653021,44.66497912024548,-9.253497398945104
-9.11429229012332,117.84618154010305,-0.2253987068695013
1.862585625060904,99.3284661458965,-10.3427710401006
-15.714941565525406,59.59116631936132,12.133443403954756
14.763502227473,105.22377482446466,-0.8325705775380289
10.277272296263058,41.55142947704702,-0.6683205124561887
-6.644075410148094,56.12107856280117,-5.794890255930473
2.93769377915182,91.68989340192849,9.463264414434773
4.484787235808342,49.21988461383866,-6.488297626866484
-6.404450295686968,92.36410793635895,-2.5743464109784218
-1.0242917027816116,147.03270484133313,-10.87979154146481
-17.693485389636894,172.29472599129042,2.0195648767366263
-0.7767799395943602,152.35215281560866,-0.34483844708893185
-4.271141426430255,111.06883017176948,9.96721988603892
-5.893666146984836,178.3592945139245,7.79355588538856
-3.6909504784200835,44.08068740653002,-13.954370324379745
9.885054827756719,64.98687005098793,11.964677519437162
2.78876462747083,149.2038770447613,-3.710358519182833
-1.5568605148867796,64.15437605997529,4.092016381556588
-5.466342323345411,128.39355382227632,5.13454329526684
7.8643038318116805,50.1917849658559,9.02657521514533
-5.789648482055934,134.48245256850427,-1.9104145872641527
-6.385065434956654,49.70711752535115,-14.987392101850846
-8.734081456317252,16.403769319983997,3.771909720625877
-13.084156308176803,90.41463599320912,-10.870220249422934
-13.71677625994585,100.46098832877814,-2.136905019917158
-3.506534952436645,109.06796123239432,4.561174595006392
7.031220022411508,1.5656704764563267,16.16261030926178
4.071072692951881,181.7273949140759,-16.090675194013695
15.39390597779125,91.96824927692988,-0.7485300248152691
-3.6663252703140143,37.06941900440748,3.4026111040284754
11.124906127085996,86.135500351293,15.06140483880912
-2.748308150935743,121.44737455501146,-14.41179460340244
-5.984553533642807,90.79950865354378,-13.1288636160785
14.322621940256541,105.66436906689474,13.104545365620199
2.8327658977784766,64.58596714650089,-7.141472706355055
11.219192987969922,141.739169812139,5.0534687111900665
-3.0540525433267294,13.246663090963139,-1.9379753098861652
-0.4643064774999438,56.944038474260196,18.106260160466935
2.1554512493164832,140.8044039366224,-3.827376932587322
-10.432926259827571,96.47077105085205,-12.974323792269782
5.3522723344742715,197.50354217530617,0.9663708059599294
6.816671145168262,161.01184100298377,2.564964758407295
14.272884867497563,166.62268058625284,-13.028726958965642
-13.032292313588552,114.51305049921254,-7.665583242559978
5.35352184158014,81.08737426836213,-3.1654388829187043
9.175691640032465,96.42185551646452,-5.29010079482816
12.600038143371135,76.91842123528414,-0.1811697128812302
-17.79059257530697,44.324315436697546,-4.875818035498938
6.086736349787645,189.7151661093058,-7.995834399867709
4.724414517718333,79.97570480241036,-3.991430420190422
-4.578974143896462,126.3153887611217,-5.426579050546765
19.391108473918475,53.147628002457516,-4.166824175003928
2.0512851739466855,156.85793294163133,-1.1209021495615024
-4.999289445376538,175.39144732804317,-1.3752801618147648
-10.187297913669807,190.11802095660727,-6.051110898008799
10.573932613451017,103.81227144768216,-4.649761465731955
9.722337362667943,20.785924094890508,3.123522568729938
-0.8719183579792475,199.90009869917685,-0.2500753638393894
2.008533810772047,133.21316694147902,-1.1821566156943997
4.900158350719065,108.58703358660951,13.49286593102507
1.159981252559172,175.0077476543056,14.508687333938665
8.285184694526528,68.94206368224127,2.2566072190871393
6.56362814485574,45.86607626619155,13.157685977465025
-11.492509198725923,46.705564906336214,-4.004183815646122
2.850360797048704,135.3414847187279,10.92895178815262
1.553276316961588,86.68011340809703,5.473621103990013
10.965777766115817,175.29474046167252,3.4087924018253064
-3.237080969730293,22.34560489568733,6.092194484795049
-0.054585718994570556,106.87463724377038,-1.835149684780381
-3.547307068122942,110.52892437047437,-15.139435940780503
-0.19339206608367257,178.60094864018424,-0.18437439723993726
6.995422327966435,141.37340543522285,-5.586653346427095
-0.005369412246818471,68.73510736950324,-0.009884576561632814
-1.8441507290598358,139.5684670824975,6.5357870078980875
4.970756941612815,60.63875203483813,-4.609121237410005
-3.460343387765086,60.47282338397113,-12.403548953407752
-9.644484422201675,96.01340544205945,5.939884925602391
-0.410086381338731,65.18842226260217,0.6605237400180013
2.416160055749934,148.32684795928702,2.4185595738921304
1.1630036920441333,163.9487676590144,-14.428053237474009
-3.344322150209863,147.2467970609957,18.228707451195508
0.7854190419906382,79.14745163003556,-4.304606326211114
11.037562464886296,56.8088304728269,-3.075752332200562
-0.21533533754553147,134.36142510459223,0.19182645803877782
-8.669930196328481,115.44184212378235,-5.819996123853727
-1.6706433037744675,5.648010929217739,2.9741435702989083
7.403706860145325,39.89657646055598,5.9500386040207545
-0.5391621850911886,54.90484511875104,0.0748843747108728
9.713547385097897,1.2599589302806136,-5.244085625419119
-13.859302301687437,170.02687445397964,8.994679016897276
-5.692628116196293,47.655518293519485,-2.6877851110653417
1.860234030537598,56.996896423283985,-0.3341664592188817
2.035477524222538,7.180082982550173,-16.989671714769628
13.133454564358603,78.33621535939459,-6.487331341083673
-0.16516517140069553,76.19508215282129,12.432964358160394
-11.677725447112712,183.0011541049576,-9.58976736645306
-13.967036591977275,32.317807284324495,-6.304852156922756
6.405725609489963,18.245128802134847,15.810478045926335
-1.6277062843273675,191.5650876332816,-6.424071011417621
-0.37126512836608055,70.93376967251687,-0.8147539836580577
13.502765693212247,155.87118579015217,-8.33477281978236
-5.983511541194696,137.19425518829843,15.155300181960483
1.9723754183966256,162.8806669133095,-1.7910656526796316
-11.43523359246484,127.93012558581131,-12.777262799785905
-10.114151340917271,49.28849261486907,15.960765290850805
1.2940163891613055,54.48487928739103,0.32620454255137843
-15.901171714574323,118.29058581037124,-5.245019657508978
0.030826132579862938,81.80269389112236,9.912109247201569
-11.541773615378887,159.70226888061052,12.277550625722665
9.462317282004403,190.62018494457732,-6.512764752606089
0.719050541370965,23.00800860253336,3.9358902870452566
3.6345793108876205,29.28676938324857,-1.3322489998014533
-5.203125913890577,12.975981305756989,-12.180016832987206
-19.40048707038596,0.4075306188257244,-3.7175118007361405
-0.6734686449031467,110.86265490430378,0.06201270261955321
-5.326547035425328,162.2418968786594,-14.45615047698049
-4.714022488232962,90.81182373143125,-0.42959559333035424
-3.5229620400894857,101.56402781832048,3.283358122597407
-0.6977690045132439,84.01392150967426,-12.089322838066494
-8.325232694789136,40.76492862651595,-17.127247210817472
-8.3791749150731,103.79224302960297,-11.110202246930847
-4.6659843707233195,122.53907204933763,5.142388757522588
-11.52539926716684,40.30197840509413,15.555519368796865
-9.642052287480391,75.90414049853165,12.44932077354637
11.192671433775544,125.36259494733623,-6.065763621516423
5.388828788919261,122.09964724678089,-9.645035528168107
-5.279947564916757,15.591778992020044,1.5127812294680498
0.1869005579628842,46.45126534304658,-17.324428114615213
-8.383105307816301,162.8726982755403,-11.528203490345083
11.602842256527124,39.20169922298711,0.23480640318327686
5.7214550510151065,30.927457920780867,-3.438935002874374
16.452458670341414,7.332323551583753,-10.030987234280492
7.760822167688083,107.71775246129481,-14.45169992008339
-0.22678324240868006,4.843787922848586,0.40605563315090054
-0.6653247335818525,120.72128994307774,-7.107399298702408
-0.9144877321601443,60.3396746807604,-8.921309787404779
-7.280194193751665,103.67828479405638,13.968791977612401
6.805968526779227,66.38808261509163,5.680190012785017
4.002621215436161,187.67150881355303,2.387432202465184
-12.874633311966189,61.11822251792838,-2.0135008460565733
-1.544645111690964,131.313874931394,-2.9777792179340032
-4.1366264801052415,150.68599472358713,-5.0853113221823
-14.139367964409841,155.30076559197906,5.387658036698022
-1.4091510293307574,127.62817746820791,-2.020228609527433
17.815429637056106,21.601079576770065,3.025619459966336
0.45708790228535207,165.7509840215788,3.3854361186122888
0.40210683219579596,191.1986037040138,0.5042963576279141
3.725386604277054,184.28518496281632,1.555948774641247
-5.440471872907881,93.90637908210782,-9.608048186822849
12.922097488862583,153.84135603764685,10.738815093089551
-1.0555615623091241,165.1074739727819,-0.868001323313831
6.370458374696589,40.03148974683115,-4.943449226323046
5.66283342769604,114.29126343051827,16.506741187468823
9.394559974140204,56.963537455707836,4.0364000308526276
-2.355244914742376,173.5802560971732,3.5980118026751335
-1.2706875610819701,10.45196303594893,-0.7831278440258368
9.453825113540194,52.68212809178032,-3.411599787106178
-1.0681508088149207,118.66707993730417,8.264650188967442
-1.6170149154956053,121.77472658258985,1.3358475149787374
9.65929340625377,78.67865623048216,7.689929981187996
11.887237388448005,38.89876957521683,-6.259727035809449
5.42446727368785,103.01947659118133,4.091978744112032
12.691041042449259,145.75476699961075,0.6751636538178972
-18.446933040658628,97.10984473982813,-6.788027448717242
2.8290489738606963,49.01865514437975,4.455106778277082
-14.881299969973158,177.76717398007693,-6.372480682096971
-8.083616440653874,61.295487579694516,-11.609524100227727
6.487906199797889,152.5031511994354,11.100079089943282
3.2407300762433313,176.56050708237316,-2.4171531006980214
-15.275213657514712,135.62967891528592,-4.94245450440128
-10.869648060676473,52.44686608055813,-4.858195553049493
-5.554566539612709,2.1679319881547032,1.26669087725392
10.153162150740329,98.94460922437196,15.316002501606144
4.644504365123806,38.912288059172596,-2.381011248293595
5.8776789261355225,88.1196301078108,-1.5726379691780286
-2.1133635030658953,29.271314661042204,-7.7679986135309225
2.128012442927511,81.57750599825224,0.9715761236977077
-9.626839544586694,41.60752166322057,5.415985188991263
2.1999304339337105,137.88376256456147,4.109602297247083
1.2549412027608633,102.95302380762953,-2.1515455285312237
-0.15427751487029606,150.35222063117618,-1.4506527920423433
-8.479251491963113,152.14950358643264,-6.161242069344574
-4.711375285078886,17.25761402299124,6.352058936802086
5.483819902359283,173.08926877317768,-3.9397073375346108
1.0694794574910027,173.32494687992684,-1.5006483551878231
-1.859531411040475,26.93766480637574,-0.8467466456829013
9.768946214484526,142.34736582278026,-15.373659884677961
7.8984338675611765,141.3382049256633,2.0921864832866146
-3.1640983916189933,170.7739995633709,-0.6896746575487676
4.188540040803901,128.46608490082642,-0.5081125696138201
0.6887939856869598,107.2555496783696,-11.328950302737745
5.941724634241812,174.646269232487,-7.255638115467897
12.326014598385187,14.892128056518938,-2.164361185272672
-0.18663340469286652,54.04908738025092,11.710636702765294
-5.206219434634898,144.96433879061115,-3.0360373232301514
1.9038103193243578,144.18201538120613,6.337699556061659
8.270698897843609,29.025316005413536,-12.72767752072612
-4.698268890250577,28.25396495018122,7.717154813124984
-6.8010353517960604,14.58331434070761,-18.246684059271242
-11.510389893975017,100.04868982653142,9.631720713703096
-3.820501436211085,134.52465850562024,-13.157860787400656
-0.30317094843833814,186.4478881278846,17.683288121057398
1.0288285586716515,123.55185693366899,6.20921948059217
5.987216711403149,104.0672941519531,-5.913949332069453
-9.1545901491969,173.76946698770627,-15.857398695230584
0.19238702118705495,143.77129219240308,8.557846936803521
1.9285279860039097,14.849363286800465,-12.265926597237524
11.803912314434085,38.56850554276916,-0.8674866505651818
-3.7818058608252056,154.4621391862321,-11.423140080804378
-4.686821916352699,171.46265732589197,-5.20266674288083
6.522972035948725,97.04460926344663,1.5198271059266946
5.34084028797639,125.75603316314425,3.1573507349771646
0.39691577243229603,32.85477907533361,0.16433502550602144
7.21579901297981,71.1874992756038,0.3803948067348255
-1.0202710291719825,28.342537351577192,-8.963232106005165
-1.2094032560182852,103.84614683437026,-9.02667063679924
-15.21508359684221,71.885997902902,9.882153575689674
18.12580364948183,17.054841661072185,5.241319836118445
-7.181562353019349,56.43945135906869,-0.6125772975637234
3.287376455237016,49.153032408177275,-0.22851819344443597
-4.309206768835395,108.63268359011724,3.7411281434487558
-13.299024098479464,51.612599419484575,-10.054971183892809
1.4962969410410425,57.5671834294301,12.399397920691612
0.3593170999256615,173.29872813516116,-3.045837498456747
-6.8423581336698795,0.09680869137631554,-8.782612034672638
0.0071023589423141135,128.18877590237804,0.4974414448763897
-0.8790570347223916,85.00363131690685,0.1294434420914976
-4.91718520516811,152.420262093448,-5.826349637144232
19.64951251995596,22.266129211355267,3.0795163879013305
-15.190253181169513,198.86865613998137,-7.427111332222655
-6.541742421060496,65.95090102856298,0.7972810163115712
18.36048282025704,2.980997258779783,2.8625543640814524
-19.494528779005456,42.25051743555333,-1.2814326190123937
2.1420808024889983,21.961720935363125,-0.06464163433938364
-14.502375844611356,49.867168848709674,5.6556686393627205
16.23909291417478,99.62299033637841,-0.6606837198382117
5.872468394712172,151.62871049188306,1.3938893518618598
8.827074565402818,0.008533691871437377,4.381049812440379
6.428440601089397,37.39854605852779,15.514750888658087
-5.6857634656487095,166.50608590176742,7.913072089990814
0.09855633810121037,79.50730387345395,0.031975261753791506
-9.193616275552289,128.34219717716016,6.457254042366144
-7.73689414185902,12.397969069276883,12.443628754655325
3.1340631489859634,158.8488193534456,-12.241404965424387
0.26427141532010184,28.771223088323318,-1.4037265555985325
10.180964011228719,106.67361293483518,-1.9353549615571597
3.5626231867109937,122.25702951504616,0.08475969356258795
0.32557858007033125,156.4085043280715,-0.7926790884397975
-16.032774600921332,132.29814914642347,-2.109096101433612
0.3216234479794003,148.93940396594937,-0.3561808326875898
5.223493916426379,37.223365250333096,11.575958366435248
3.8187972449739087,105.03537400405175,1.8757597090394467
3.28526594549972,122.70527006060195,3.195270098165329
3.9226356874893646,116.90110781306385,8.345129009136672
-10.308138623741547,56.27317557949256,-14.663967263423842
-3.7688523477941054,35.365174709351635,7.422599855309179
-19.35834442351742,162.06490274006367,0.3719763630694628
13.59521990067453,186.82101617640657,-5.528625023704428
0.08003802864726856,173.38866169887262,0.023445766781998313
17.965627836450327,84.65554590917401,-5.2870002818396085
-13.242202784289923,137.60217178317174,-2.433156405370462
7.857835159722508,127.80949755017849,16.19423724190975
-6.045022197722996,63.728463447135766,-10.571313744986597
12.929977499614862,190.93950984184812,-6.661095131928647
-2.7857304135905046,194.23598275042698,-2.2299118015310233
17.070748034542095,24.859842302654876,4.9579174404984325
-2.9957325369885592,105.72677211033688,-4.204837664572775
-4.895029801782948,145.5249418637666,-10.229090263726603
9.051799559494686,103.49740665922853,6.543745501767935
10.631920259741957,166.95628836928722,12.5507722700019
-2.394076647284745,5.19748089618286,-10.977471619240374
-2.379987290533287,74.28457699931006,7.491761520948396
3.507718503702166,45.812531799807374,3.983136069235884
9.273007269816025,184.71103419743605,-6.650037775948557
15.66149789374072,168.1541896564229,-1.2784735561105267
10.470430248626977,147.8133651665961,-2.999974364002995
-3.227653553458538,136.9902677466944,4.060616630413107
-1.0405964867799258,139.18366995512145,0.8142965655789118
8.459271374833213,198.458519362438,13.67765089753203
3.6357944177280133,90.02289620204233,12.43088956787469
-0.8143142652321428,139.97268555697855,-13.359049780683325
2.5489518544163743,48.44928060566822,-4.2722000039256205
-0.5372604637755332,45.011010631478456,0.48093137126923846
-13.473383589431199,136.54965962288756,-12.493446254897206
0.008321249611125141,24.289873725603627,1.0297338934308942
8.578942878216465,73.75357623256707,6.187010858289348
-7.295904835595998,159.6653106745068,-8.02470716328992
3.2570682554347377,127.85355977634975,17.93609332181193
6.821438879167167,96.47554212864368,1.5775008520851357
-19.601317421320836,159.8176480155404,3.266074961993171
4.8591032084654335,164.95733485460616,-8.01652795182426
-0.6128430971084283,92.60899998469792,-12.589869525908824
-11.793092886637318,115.41020201418448,-10.358194548164871
-8.445970213216528,21.957390179418045,-11.944584145919269
-19.141408882364473,197.1953037347751,1.6550731307884101
0.5276156546713703,166.95576267805896,0.17786654884500094
-4.37572091992115,90.31907759225646,-3.490262221705009
10.659506671325076,81.62250825360692,2.3809670876760864
-11.267129788775831,135.10977681735577,13.587646845948647
12.597096051125035,16.214678170455677,-14.483197445028722
-4.158753277777509,119.62068600869524,-9.775525253003016
-0.1473868922672683,91.03694695481795,-0.16799181011367095
-6.352288859033435,120.32657622891303,5.833808094491265
-1.0901417813469643,59.126389328061514,-4.327084158820837
2.130779082914416,65.67712429658023,0.3147670050454098
-0.521203256237037,40.64790798297433,-8.152732453392106
-11.674624660016345,154.51083590784378,3.6791101664425954
11.431709037131675,49.859787427478075,12.30969296561954
7.701519702808697,78.97485548059655,-6.867113008841743
-17.86179526913307,114.03848838720043,1.833690879820003
-1.601955081474527,162.3458577326499,2.2133270607892364
-14.775614559002815,140.6045378755101,11.126771236368805
-3.4785578442243117,64.0552132110576,12.609813175065897
-9.837014311935416,79.40280888568498,7.237208136684268
3.0563291087187303,114.12876936247318,1.8209150744777693
0.20432653715609253,36.190329859662484,8.940916285330506
3.8144474901239014,2.2426947461802627,-5.478701091609258
1.514274102055063,141.19630536932362,-9.539007622927867
6.664977369456851,3.175928698142605,8.845106517936022
3.620264008554083,83.11245131725735,-6.476095731432586
12.835407098111672,171.27526205549214,-9.322475762441975
-6.94882062692351,184.23117192031063,-1.6399293510892843
0.3154090598987592,63.724300077851396,-0.18356379928728855
-4.2613122481703005,9.423515056542954,10.929827874796278
9.326090290625256,64.59300254890985,-13.640129872915338
4.419101114956863,16.103118566181273,10.874175548559004
-13.946386145957261,74.48548332736902,13.223657442250719
-8.353194733097713,76.70039521822967,-9.613448029916002
5.3969093747802726,37.31480967741783,-2.6854353273912026
15.985188433624371,145.11462162291465,-7.557102738476541
0.06326332742115655,153.1497759376865,0.03183161013914111
-0.6106272529275754,136.93191782559995,10.232518157531404
-2.7207508543115395,135.25774781336892,14.42715132052313
-14.660491569598525,119.56487262851489,3.1056817353586132
-12.562529040298692,194.53050560378963,6.066202902586245
-14.531677470773358,55.699362345834345,-4.290720540207586
17.58101101423283,111.63460784314994,-3.347175969904106
16.919472517845307,10.28498546951322,-7.8128504760515
8.059080276416369,60.125496031444726,-4.32926921310611
-12.384446241533661,141.01587715343047,-0.980262984173839
-13.560079848251384,100.67295000562495,-7.378070287618325
-5.99539440381987,128.97747378863923,-0.7087744435350467
14.617077598792791,182.73888665557052,-7.326895764860491
-4.268798918172584,70.65113318890037,-6.4500750088686765
-0.48592625776464027,31.02416296305257,8.277117467059034
-4.555601959399127,143.26047447766692,4.4106534374493105
7.760540913798053,119.28515897400216,-1.456572845224671
0.1559532243430342,175.46174337576443,-0.6503674480848328
-0.21104133712720255,38.71337745892751,-0.6360951369691407
-8.784377506069116,173.6823067998087,-2.10613793630637
-5.917539603989803,3.7260161174530904,-2.624915702067622
-3.702277647420374,128.16425368295964,10.019333826900139
-1.9955622104927055,177.98287181961288,-2.465127599923762
8.124384153945865,142.73323950885043,-7.030011700916508
-4.15190408357436,60.378560228152246,9.553211354552545
-0.28967264329440706,30.973232679186523,-4.5346323843525
-7.558845968233196,195.8778391571285,-4.112135225415333
-6.373017499393469,146.80371094158022,-18.32297243765166
7.108509866763945,24.917418882281982,-11.769235409462116
2.2054363905982357,76.94640501575833,-3.495238261056234
-13.325114388388108,45.976264340526555,9.520560174350468
-6.354239180635094,1.911157953053788,12.152625072866018
-0.13187798292459632,178.95950804618917,-0.40849193005419515
-15.544739031393238,79.74479871230497,6.108554811704136
-5.670837061964093,74.80841605183444,1.2339350024514206
-1.720424586057846,100.13781190993305,4.461001409432636
15.235491459925912,159.65945488949205,-4.403333549487651
11.478828532138133,97.28734703856563,-13.26998911501284
0.965631515811447,39.53147430722197,6.075424719518631
0.07058729985799748,22.214459434369658,0.07058722583985758
7.636945956975518,80.48929067980639,6.495025898297133
9.179489887417002,162.24272121717576,-4.559755431988002
0.003904340982883889,101.02480719033179,0.06521204891479553
-3.1355606039149793,179.2418417352719,11.719847515261863
18.430101694352263,131.54342761964946,3.528123908211049
0.36211481811114166,47.07150085666265,-4.693126776920642
-1.374517001708332,161.77590143347328,15.60725889108127
10.335863930170461,163.54226690700082,9.092025493436301
-7.947346902499064,91.97418152955134,16.4298388233452
6.312471150059053,77.60295776866101,6.493597950496496
-5.410504429711505,114.29093098697909,16.46076972173159
17.28703024547635,57.391626126310854,-4.527219984257461
-16.295697645783186,87.38096001016322,5.421208973464195
-0.22132012935741835,145.0069123231039,-14.267501798483364
0.09821985981658131,67.09917853729932,7.100503276615153
-8.020544055106658,167.70099987743734,-8.939884890198059
-11.045003488828801,56.86804097322806,4.650093957244764
-8.754369043812972,118.79295163582648,-6.719748085272302
-1.1468029446473027,122.03227712023819,8.16195858857963
-13.762163917991193,14.093536088422653,-9.312612983367373
1.2731527262389453,59.993447460224544,-3.886587928094141
-1.3615098227436362,82.82136454733194,1.516243944514601
-3.415011252391364,151.75907786212872,-15.680464120497156
-1.555817855557102,37.37762858157676,3.6427080233035136
-1.682868591098369,121.16074896724942,-1.825517821546579
0.09633769786061112,193.6506381246458,-0.10921255484804944
-8.740351006698342,26.674645333055793,13.56938795090796
-0.550067638558356,84.04526986635989,1.6764391900400215
-1.2036111363413124,130.6079772339992,2.4170625109612396
3.6777145337347483,46.97312534091815,-18.55535701539053
6.247065653813802,59.38297225531499,-8.900358802039712
-19.476982859382726,42.22774307344146,-2.642664001445283
-0.01273239812218363,12.655349016320837,-0.006630732476376515
-9.518952394301246,17.264510040943893,-0.12012663782618467
-4.293751015401579,80.04427101065883,-10.790848653632153
-6.388531908712791,188.14827642607506,-5.17523941307721
-16.945478874666936,144.76763425632865,1.9736036259217593
0.716643690379918,7.2904319690412445,10.636659290572474
-10.729929420801676,74.59527142382105,5.879243126515628
14.129578983356152,177.34726532815935,-10.932578077283258
1.222966180516505,136.0256236477079,18.545587446116077
-8.70708329467778,143.64596895089332,-4.497900307390427
-1.8447310745586072,166.52044085500737,1.4493719134098655
-8.740520443012324,124.70800943656835,-1.5696910198536105
-8.647016530583691,82.69770966660718,2.8685597734004094
-7.9407703646665375,83.6911855140981,-2.338689775692182
3.6923774051250544,72.38998315383864,8.046677314428724
3.5613951373960053,46.505896992457195,4.580838175265428
7.091968549816317,139.39776000982812,4.195839095470483
0.31548284923390385,35.397331786150296,-0.3695054906600823
7.88587278968367,55.73960225156354,-10.581412210162515
-16.743238599729413,131.05451991751053,0.7302580235093254
0.06086775202271392,198.4442677796061,6.6112393963082
7.9337909012155485,46.29601182056602,-0.8220015121171793
-4.65348570768407,106.5072373445773,3.6684378003375278
-13.955916692310124,91.48680970226634,-5.280577269341517
18.38066479045005,187.08582635271586,5.0637252253057286
0.03137767378062591,122.83749544858391,6.203453775861764
2.004187497745058,196.92443092681856,7.499953632673095
14.399543416307388,100.49433143863465,-7.800518241439702
-14.697029533708172,130.62040932601363,0.988857756950432
0.2536837346668774,113.07255065506858,4.27992633433927
0.942936912063595,157.52308208425546,0.2671712244561642
0.48638874710026203,53.17510671683292,0.12414911097949452
-4.534299203472415,109.33154133772425,2.7202464387708973
-10.383390504670636,112.76645492299605,-0.7513203163078821
-6.044399553485256,189.7095063449055,-1.4872586441127469
-2.370980832106955,52.69575781676432,-10.833227294442125
4.560283848143988,70.47719714982527,7.737230703462368
-6.423768165800808,20.090333171372322,-12.951738809559965
19.796620160452893,41.74442557762505,0.07567635560397186
-12.223655876473018,187.2023147210413,-6.2364599825682605
-13.298951497711894,83.15106433630956,-5.878730779954813
-8.635132110728653,166.38913146079386,-17.711689975927573
7.426343736525187,170.54691223590598,-12.359811185467272
0.46830962725929565,138.64739774935492,0.46295331996971206
4.333498216937353,178.46992233773295,0.20979745368650482
-8.352055933462106,163.51518608012248,-13.372987422637918
-10.174610065280525,125.70576459367886,3.9534917579060895
5.745662650509484,99.82463281290046,2.384451931318506
1.426595013479779,1.356365399424253,-18.020073743725412
-15.35757598949612,52.88112009305552,-1.560680983085688
-0.0775416375863571,40.18042417908638,-0.04806563933672819
-7.000268935656383,18.567047797762704,9.213517425532295
3.645973325349169,89.50471347910263,10.872230484851395
12.637997662867761,110.23258535211804,9.043181097321025
0.24855179543794317,148.32105675134775,-5.203228646744928
18.179977981353264,152.01722607039392,-0.16671259640100844
-3.1996142015078552,76.15095559334932,10.005779697885478
-8.059250931919477,121.27433930424922,2.8610709055093673
-11.155506605192313,35.238347950681145,5.192368072679284
-0.5532601327050333,93.85897647581605,0.005263748425558907
19.60113788096314,159.21813623112422,-1.8638262535579397
-6.017279201176303,94.57888656983609,-2.3218387164757193
9.916255751519595,75.19764560364386,9.028984885416948
5.451251342955732,169.86822675879029,-6.7018334577542875
-13.815078169331537,61.09236935824256,-8.458906929260486
-9.550991011158022,46.143527132494185,-3.9619670277773156
-16.168484661144788,61.86501697716922,8.272690502859284
10.714327708929186,110.44224952577622,0.9555984883807916
-6.226647947162612,118.22260885486958,11.082112641230381
10.656398513979852,24.08087454412742,10.235902538072702
-1.827045772626469,109.71723500651042,-8.7865535360881
-0.2880481971527975,165.20615427154956,-1.8794403803773847
-1.385512785184745,193.06977290202826,-4.574900600707936
-11.128317341459564,120.54130816009103,3.006326170574691
-15.876114493701136,108.00899251534919,0.4408753965445829
18.3887105270673,113.84013957165615,-3.6299522950912944
4.790716228737721,147.04820147963696,-5.74713598304297
-9.116941819310142,147.5329632290526,-0.22969480227905556
-3.921081329394593,85.80356055501406,11.216133844602659
-5.45304676041071,67.95446372583775,2.4968594104234967
-7.46077388044192,3.2480531513925825,-1.455800845657339
15.932357836448904,156.35011276448395,4.375428007271233
18.95679034519086,32.339989447461214,-1.8737796366611084
-1.321574572255066,29.726891746252715,-3.3718690438418513
-8.469393973287627,56.366528288546824,9.582043290852168
4.158172412257394,123.09458179261112,-2.0413717185119356
4.384705555811805,174.3866633751249,-9.693566932235589
-15.547158493076275,126.94122445313289,-3.2540461091520165
4.575744615529306,2.453340331107934,1.7867010865656183
12.55876763180302,99.8928250707809,8.694759842103837
-13.772358784976573,35.99477889528371,-5.4927982467480945
-1.8088610269582008,194.6670003201077,4.5281354125616975
1.751845541316271,71.87231868041681,1.1978789148497726
15.02253685598917,46.58251996713785,7.50897929108909
-7.8076085615972985,57.70263573738155,-5.688783076000392
4.6554159269941024,152.24397893445257,0.022748266439808783
1.538884920003028,151.5884228334366,-0.480947167116023
8.626971956272516,1.5044824699181225,-1.8245278319193134
-2.5708054020135735,91.77807411069068,10.203515538421154
-10.566914454894846,128.28923334967294,-2.3367654396548274
-17.355091926263526,178.19821151223502,5.830442200250941
9.967440795589189,52.665039815603556,-1.0709561081193302
-5.955501294265717,188.31494370378962,11.382792866983783
-2.4341509934011354,188.33746388091436,8.737729775567674
11.50452252260358,121.76781293617584,-6.869978622482733
12.908394479079712,164.12047312761558,5.200184521980932
-10.644692049375163,105.39159192712992,1.4363029841828594
-0.607892883603142,59.49884479595584,1.5915339809438516
-0.0704594494678244,101.55330816851395,-0.9119748123515408
13.666790614494406,180.84573772927192,4.575272044594657
-6.59064590726121,44.826470982363965,-16.663030011557595
-7.750953458821761,169.70678422859828,12.890109310690935
-0.7586671987618323,21.870868044075564,-1.0451031608646022
-0.5998186014333236,197.74670068877046,-2.558158932425438
5.593189571231701,168.55539993662927,-3.4563789443845017
-15.196267827643547,55.750016130577215,-11.27800137798411
11.617082675820381,61.12867346016058,4.563582162450188
15.168418538017297,86.54930010887645,-1.555496125508314
0.8062205324536876,183.1196456895102,5.289583058709884
-0.3769282573316757,52.177816665527054,-0.04040670431766478
-12.097382056869781,115.96355370357139,5.671451817202443
-13.128195244497332,195.96529927462427,-1.7802157702567307
-8.94384513597502,93.7346659646567,5.760956499070603
6.266449029574929,95.73708931130778,-13.558163866613794
-12.541551797709682,43.41248339478858,-12.677571812116042
-4.780345466208624,104.58637392307023,-7.512402256584697
10.35054309166922,193.68453305743606,11.720906812981859
8.058721035731605,170.08248411717693,4.893391474025446
0.5602858735222729,197.12683298737088,1.5863008319791623
10.597754768562762,97.3380965114071,-13.988358344863375
12.058998006357891,71.7331889000689,-8.145627896316842
3.388248241727604,123.46870414163789,-1.2777856332071735
-12.744611439524332,165.1337182035611,-10.068721026659667
6.878686832701689,126.00735064534638,0.2770589020018575
-17.034633107114693,180.72439596175843,10.20028972106229
4.336017645204217,162.38370870320594,-16.633137997536455
-2.2784871641749747,151.70214429081645,14.505291198950173
-6.24867452678741,119.8222789893608,-2.850632561021705
1.2328535723401517,196.30532905396615,10.601635957944312
1.399044154014716,51.0690143506106,-2.051777569778021
0.35183384241552723,130.7738577672713,-16.40162867569734
-0.9411240853044357,38.49391124751058,-3.5903813068327644
-7.180501264790315,186.04706122034764,1.0290690236687061
-10.297795210824107,195.6175551365518,-1.7513405936139366
-10.952748424163435,31.65333252363862,8.709794216532144
4.085771338806551,137.50565945515686,7.369319322641834
-3.87663580589461,145.85757586511227,1.828771375322128
-11.485261285952186,7.739198119938684,-10.973485725744993
4.938215315674281,122.92249257251041,-0.254470555489287
-0.9901190734023735,148.0422574408798,5.6664792873408185
-0.537794873152291,181.7415706518527,1.4464351147721428
-1.2560345938891293,149.99164117656846,12.4969718610597
-2.4090745438720194,192.7941645322877,0.07656778073175514
-4.713721969128614,65.63751736082179,-11.967632334987302
-3.407337829388856,106.45634187015773,1.3001359113054014
15.936615989435776,29.820155307634867,-7.357843910267601
-2.6156217953531637,123.11086387682857,-6.4942101927332505
6.281133330370724,74.70691259372504,18.008134839177423
10.343933977941862,105.74953378452439,-8.516607062258307
-18.1438994310956,27.11843528251452,1.899136710666517
5.1130909558742434,33.402350093940015,11.532876558540197
-0.9975338180818302,92.31026682212193,7.976417034552059
-5.403463571728757,87.2507502646841,7.694347163639028
-3.23907145500805,93.10207228751881,-1.2359360011931928
-3.7054460839390235,131.42507655190894,18.310647834362456
-0.6523789702090745,161.28673851411776,4.713830282253406
-10.086812617316665,139.43735230540167,12.035635635109555
2.3855268310574815,84.32463240660107,1.9974103546038504
-18.291526051101926,154.81593182453213,-6.055453379357676
-16.550050573380457,92.40105608247298,0.6281869217363576
-0.44801937259931435,196.59964951493077,-12.567750954484369
3.5658364425160283,120.33009181910414,-3.724920181713834
0.46227585578672814,1.4893559834595393,17.93902792071709
-5.033773686981362,74.73143388641559,-1.1289445335337862
3.1559191149710792,2.405285155575032,1.6807959991324322
0.2734864333916584,143.085947953983,0.251983246198073
-7.408210360326602,188.48608348613064,8.352376891425129
18.274328723287955,139.29122088130384,5.901941819860622
4.4823844100991845,17.67602214797701,-2.550595370744677
-2.923172726366429,153.30890498618956,-2.3948307668597604
0.10926878218140598,144.5179817993811,1.582541641668524
5.309322754759047,176.14061014168,-11.46905227865827
-5.0762300964353635,165.52855446714796,-0.450104388300396
-19.32942562546083,8.617988226393747,1.849825759431008
0.7001062158428769,37.45526736949427,-13.953189762855311
8.821381585417086,175.3219961446791,-6.545029032179618
-0.46812751904980443,32.36786966040122,19.192830857985598
-6.47393934759919,107.10802219992381,10.317425877624887
5.501087420386319,101.13768914343666,-2.1932615741052106
0.938533085579721,10.660791438674199,-1.8054194991472552
-5.7852725476894795,185.1875241862703,-8.776737131321942
1.2927032979796207,76.1369986956909,-16.705510352328858
-0.1733050501994106,3.2214695732085907,4.773232522740812
15.007146575193257,166.12475798475904,-6.441815717753624
-4.931295778278276,160.9660718082011,-1.6655706424945205
-6.141284223366864,156.91794812058552,-10.970716314110822
-5.759547512168289,159.1296976148019,-19.01707188698757
-10.756678116461496,168.95520291811553,9.7352020291099
-0.5503886587957711,161.79729836364294,1.928799141205628
-17.06842781985545,26.222965003846554,9.432098008559148
6.239168013847773,129.37332550637,2.6840174074163494
-6.262715019226111,93.63526844339103,12.571669875366542
-17.84514417943379,42.7795169756217,8.422822229398118
8.627592518321617,156.45810724586832,-7.990096785253335
-4.815445843830632,199.54076071006102,15.06510305125851
-4.035133515230088,53.59347608878744,17.437069558280026
-14.332272759262088,24.937614519672646,-9.716359750234956
9.425181726617778,132.98250848742214,-3.4791061892790904
-10.465742772409046,172.071861396104,9.838506571127347
-4.523689575882231,140.69577255436457,7.501014284462063
17.012685798811134,156.7304907988965,2.185933072642996
6.825795923294646,194.94193123854217,-3.946478482542006
0.38079677455255534,132.70794563554844,17.941833775087787
-14.976558511922404,93.68203360176763,-7.667952427571995
-15.756411627287967,162.4568833983958,4.698442748838293
3.4727128171826083,60.41209746412137,2.230247981787291
4.136189823869312,123.43383658606038,1.1411892604690896
-4.1557938417609686,87.03932095250364,0.14061583491499619
17.260846674032532,195.46080383043616,1.0445746285171706
6.4163563280997025,64.67720407713551,-8.945199827372035
11.199375394295421,165.35828815297867,-9.444577735963758
-0.18711377273442192,163.1878482106002,0.31898074643045143
-1.74269295923249,71.39918097871916,-1.2600816679728974
-10.943217179084305,117.30488056869164,4.0172672651161925
-12.567895063090424,81.11069299467412,2.422138584364682
-4.418830446470043,110.01520245601537,-5.163301307521952
3.7258025661512493,79.32299439827584,-1.4258954027389328
-18.781244898410776,175.4384774724712,-6.731713868893373
17.94151173868698,188.71405002072424,-3.136534379746168
-0.09466307317337976,194.42945287771093,0.3715024168321276
-5.766125884711609,157.57679392136598,-1.2840422943010252
13.863560839329763,159.11823018592196,0.17553870026561944
3.909831165706523,193.31019959994381,3.113388610303541
-19.03040831550332,57.6857138296544,2.547057805116656
14.797985155974835,14.637426222490335,2.1646884895763594
0.03911516145194358,43.229734593213045,-5.072421035822797
-6.4071814835659,169.15588676312777,0.7303184086141158
-11.314498760722644,119.08458843975171,-3.8708248066944653
0.691059321221477,190.80830520789377,-1.0842594329076682
-2.4564089092664387,93.51142116758662,-1.2196970004497794
2.0404563098121833,106.98925707534481,-1.3405125045412671
14.104463977679423,100.78156564578318,-0.6692853217323079
-3.484509285179291,107.09448080058681,-0.3122824772978329
1.3098827809463391,54.247057290647206,-11.912610757720763
-0.012802225152400717,174.69970441707275,0.02623911995120925
-6.716626098886714,44.562775370786966,-7.57187263904312
3.498221933103358,177.99360357901105,-4.977058243946816
-14.429606860428589,91.88691949713139,1.6317323712701313
-4.855999398974951,25.334208636281797,-6.065695935575008
2.777919304226338,91.50303341994308,-5.014245653274882
-0.20119200371909177,77.19370559904084,-0.08519603151735511
-0.35991934542771997,154.07409123364724,1.776979772937735
-6.646034732420529,192.38548076118911,14.708352267421184
-8.830499804783841,51.166874917725735,0.710157915291463
12.934838942422616,107.59647825931451,-7.273187336435964
10.602753749750697,196.90579592992407,-2.424906220264257
5.72834311853833,162.36972948427302,-8.624823089089539
-9.336493705143996,84.02532103166946,-10.179689627044825
-14.391211704952475,41.10409804402182,8.209698886960423
5.028216043721434,166.76845320833584,-4.775296146384765
-7.782088954447905,58.67560800820506,-14.945302176058163
1.8499174366253865,18.49446985927581,-0.7739192167199863
-3.413640113263241,88.44987706716417,-2.057838278438458
3.7964480729018444,199.58468795416198,-5.260781514644333
-1.1384588822674686,150.3995192911376,8.98834170058379
-4.999031785127876,171.401383023235,-1.2203501811515431
15.98809666311634,58.14807341862043,2.3777523713671567
-5.246792588069501,15.430631324685384,2.805350215776443
3.8005956587430276,47.71591045926704,1.7069025801068034
-7.833967368839913,47.22460521514047,-17.60701782922499
-3.0090235262156853,78.6494264198703,-13.81352740235473
-3.284166818525916,163.01347763194974,3.324834251808384
2.543467402333779,38.98806478607164,18.987083227558877
-9.004639868064276,146.8334108324287,1.9459851400857862
3.212251651584536,104.60048672549888,10.752873705056166
-8.34532624208774,92.8751230281249,7.03487536287631
-12.232582238414205,177.8273904007313,-0.5823506684607819
0.2926835125985276,139.67964590243326,0.28803185030855477
-5.426529305547657,135.58933847170792,11.90408595935734
-5.395567349655124,53.127886468171724,-7.427806852175839
-11.90413435620811,145.49784220040817,9.099491315766311
-2.0557970424630745,143.44476816037525,0.37908571405257396
4.306182949499371,189.63455262437566,2.577263461609369
14.627604184235317,0.39641452669976207,2.3436573125848477
2.6497621930018944,185.35210319894128,0.9775309326381848
-0.4323730580095683,135.082649656054,-3.0141246815198213
-9.028222972761872,81.32822302342018,17.0643678791788
3.8809842297293513,144.48586796134134,-2.488335966225829
5.131708268053738,56.68568821786892,-13.409261644220573
-19.661872329667478,187.72670195463976,-2.715768364346274
-0.5236868169500478,46.58378192275114,-12.347389353527893
3.91795867440173,112.98486279292459,-1.2917009243908848
-2.091148087605225,137.12349290024517,4.970052736638147
-0.6107526311507024,17.07376993436176,15.506167440285079
0.002345380521075945,88.67092908981628,0.0019662171875069797
4.048229798686196,106.85470658935792,2.084663399071622
-14.446062091057179,46.631589431708,2.1032478913539325
7.390832162326249,57.271476650626866,8.874656564532431
7.439658327941125,175.86045657556113,-9.27802251462906
3.1366384963143057,123.7652366497777,-4.899722235688571
0.16443688374000906,62.651649475377205,0.2299451187922394
2.2993659874636805,19.89733546290735,-3.109537115489305
11.836642128871725,145.70199626728345,7.970352483411529
1.6838127197075006,27.953092949357593,-0.6983196440396332
-12.90782583124307,125.09669029249547,1.104815360912451
-4.766591800014902,15.757654761806016,-0.5149399873550602
8.847749659426684,67.54198984933237,-10.04739620724962
9.916598896833186,68.22830098147831,-15.085172895006165
6.580129891313069,14.618357161069806,-4.746938505058819
5.309897033063294,175.66644465376743,-3.597930387256069
-0.1160449793915569,105.58733861852015,7.833547549041383
-4.219146386363123,33.00336921576425,4.385826831413968
4.565341970776169,71.81910510194965,-6.921295186829667
2.8352826010474246,50.53135404382585,15.69333889648471
-12.765580923136062,152.64904779007998,14.466697339061579
-10.478013229688692,140.58118620589806,-7.10896560933021
-18.308602122297586,36.571647906115714,-5.325251242695317
9.341272218492438,79.5505944412159,1.1242622095388508
-2.3294609114802505,4.456880969774368,7.394486476415288
2.929325398258006,88.4376904047373,-7.1359474004752315
0.22724544682751271,92.16159382261564,-11.213132851714859
-15.098198813339089,131.79241744556182,5.494212478048088
-8.4509526504205,42.907123417228064,-1.0884603762021006
10.046144725183291,196.73239749974073,11.550013585806486
-13.455488927699875,116.37651604005748,-11.396360514842321
6.503681253943034,157.98035623929786,-17.60485350836857
-1.526539725595127,87.79012396293328,-0.3721597251362085
1.3159282980670017,85.56846303923473,-0.2596460128655119
6.8765156656802935,71.29518935469832,-7.242426395633986
-0.4599909461997275,12.30303371539787,0.10009583307657653
-17.822118524423875,153.81437067160536,-3.6707156126877925
-7.938084659258936,70.40893923646318,17.97332488192054
5.314028996372564,38.878456044418755,2.000107061254472
1.8551743967667036,126.31000771065193,8.919317707307266
2.987409281137075,189.3518970947463,-1.075339281913548
-12.743693008963616,181.8694793477428,-2.6662140155981477
3.361168896757088,84.29779241150317,-0.18930342915165235
-1.6054491333300736,66.72404845967554,0.8085178982377532
-4.0778138742531755,146.16767044959474,-0.04542250287836118
-13.451023561555852,3.698118336838929,1.3110380076268435
-0.10359193787637805,87.32192139538671,-0.5440431443363244
14.492673166083547,142.60357194220927,-2.938018376580801
3.295552671682052,120.5113831169781,3.014072404589326
1.3086017654522033,8.83608320896534,10.995493446004822
-7.515284816971913,53.6496370128406,9.82893560466521
11.052533899031431,88.38577247833916,14.120643944284017
12.717166733667867,199.8014038282965,-6.24362491222608
-6.168466202556005,110.80543431065131,8.015647203314064
-0.14892777862886322,99.42350882952972,1.0326003558591819
-12.390481039766135,168.4291010216811,-2.1210359841373307
-11.102917884061478,26.599250674348895,0.6928326328186682
1.2984644018965668,121.53648138601743,2.99964925374824
6.5248716045800945,147.86366377031342,-6.248646830246515
-7.944387396163457,195.30758674743672,12.872712761544017
-1.1781900676741686,5.707567228814625,1.764001087121666
0.425603067442157,183.1633150935499,-5.326331768720445
-8.665061366783846,57.888771531687055,5.161460114805775
1.900650256072723,88.77901992585544,-12.490595513487309
1.722770093767484,170.54892225096862,-8.562535752400429
4.554274561177707,102.6383395676887,9.702877936653557
-3.204125760948304,114.56028415002926,-19.110815018577757
-8.676876190768795,101.0814682852314,5.166198770186594
1.201260232216679,27.753084983552956,-6.340319507304491
3.3052933248242895,169.2966895070454,3.695446795225418
11.836477054963455,138.44257661971204,11.098547465489165
4.790575050175471,180.35673230348527,1.9518879086394072
-0.9726437023993277,174.24056322408194,5.894765932453603
-2.1149997740480275,105.26682467609973,-0.5218793612088413
10.518957242510071,143.44067753564872,-8.514502820245403
8.30356216210109,118.19213547058534,-0.6022790209025419
-10.87110706754131,109.99457362640908,0.8317744789526995
16.953773985147173,139.55032789204276,-4.0673949000963345
2.386153079991744,65.78546481813923,16.089252183137855
-10.45230775068394,165.95658169624676,-15.474541662908337
-1.9093730951511385,116.09111685790879,-1.123571250622306
7.996127463318751,189.26192334308607,12.630265676334306
-4.212412716926386,40.24474003778251,-14.60853747043239
-6.285581933299196,19.358284769947034,-0.2337104207683383
9.88950509969937,138.1878875893386,-4.7719943069740145
6.674832695665938,52.053831055710354,-3.1256992592781887
-5.329793101516797,138.1475561757629,-11.57800393535516
1.7401612326094311,67.52837065642142,-3.660593187510613
10.826191049087614,163.10806898196086,13.257012762485891
-12.577172348939904,105.43087481844424,-11.527426871479289
4.61060382152977,60.68585263387101,2.2974179886341535
-5.348436469601576,85.9882686289078,6.155447563573664
-14.687897063373189,94.32078803458204,-11.472292170409963
-1.6755780234118685,33.91502912600597,-1.6376535091660736
-15.42944975557506,58.64678049880882,5.879089370287253
-19.466592126115,75.30607864275831,-4.020091293414593
12.276163184696273,48.87541440951853,-3.065167605869793
2.3143442089183477,46.08385476327324,-6.202754152362315
-0.9979421496860263,141.22309572093627,-11.021187243175822
-9.17435573757042,62.91317176633322,-2.7510699377114634
6.917284890038448,125.42707103741277,5.0181854163103985
6.864314877412786,122.30160496815421,2.868525119480333
-6.1298850496462345,42.833726623534574,9.02886759878782
-0.7918282743300642,156.18453543630585,-13.90103464201901
0.8478276490946092,2.540632357718242,1.0629082186496044
-10.977180108082644,82.54438200415784,-11.295167369251491
-1.8629157208996108,128.10585197111436,-2.3166077701787833
3.752531712108839,1.7262624773313195,-0.44001881709588553
14.318349431129969,22.998843110210476,2.4162371571575756
14.733677125003231,154.8124853591535,-12.041230897415533
-9.166450332805264,112.80837279339808,13.175415262774505
-6.410296882091307,162.16402234263552,-5.266541972440468
1.22606693849967,108.06780381322088,-3.441919674597675
-9.462917936788795,179.83848378345456,2.5751578236182158
-4.711690464119576,156.80291327739573,-5.752326575405497
14.97859706565342,134.25666661708715,5.055260159580023
2.9873326744749464,87.39643473286245,-13.271341020399102
0.39718076582970535,147.03110674413136,1.1941295539988246
-12.491008129194245,193.18570707747529,-2.5656788772017483
-0.7691196244897738,67.1775447230227,-8.040858115469566
8.291072760193186,194.7014085236422,6.909018550262167
-3.364073295344207,41.45238116812489,-16.154952432594108
-0.2981274126480374,47.459813710962194,-0.453181640438355
-4.7352642534057345,56.42266988477647,-14.119222080837352
2.6338395755251716,97.708960338479,6.358948748705081
7.675286013270278,56.13691399087792,5.466536304553741
-2.9037753369755444,196.73130695424095,1.3035409194169847
16.192519110124728,39.36672579622456,-3.6767106806486187
-1.7773548133118051,29.65146089578998,-9.053936690326154
4.745543652829114,80.15192317403125,-8.395538220373798
2.064612010640729,83.5134844375861,-8.521213578635047
2.036410679682664,57.703811489128995,-4.9933875771343965
4.927804003361502,100.2165742998492,11.931275874409815
-13.919296810112465,161.1745451087504,-6.692902334754017
2.795239991511099,72.0504369025158,2.622393630271163
9.877562114495477,41.93411659337309,-10.77584227583498
0.8646788278472476,42.82283243374321,5.978857279148556
2.087734457647256,174.41163984228544,1.0838953718851778
17.877481703679592,116.74763297031545,-5.502439235677631
8.356095416814519,49.469456167750096,8.659878571378385
5.09567055278321,127.26322213573616,-1.0951422119564194
7.5800960716042525,164.1780557984081,-7.553176049602434
-1.0000501512713755,144.18462738914047,0.7999326093161726
-15.457457786401577,134.63553680672644,-2.0072969870464026
-1.318301538868253,96.6157947384903,-5.262414555557188
5.68708416408545,44.01125514771908,2.854460767168884
2.9023522314036407,189.21671411448685,3.0663467221365965
17.7145304690942,32.28872310378685,-2.2525683820392586
8.68822214748108,20.86189496700468,14.255712126539382
3.8007421337727227,96.67605178105092,-0.40499430680566684
