38.75857140810028,34.28952788485106,-0.42287388797329023
0.22003431254452785,28.73996610850542,12.905637106804235
39.90828287297143,127.3021218238961,-24.506776343637714
2.0295501884198557,145.2674573390719,0.9709039057835541
-13.847591862212276,85.87517655739718,-8.104168741332092
-1.9378501889379456,44.39341967891946,-0.1926015534098627
-30.206269361924324,68.85176057837553,27.347257610444196
0.6578714333970634,88.01394341314193,-10.692934688450386
16.451296789932435,69.50853801039301,40.90612824290437
4.335909497486432,22.558511157814028,-1.0094310396490038
-43.0618852822275,107.86471417646464,-13.709764705708764
-46.48810471322946,79.41860813162228,-17.46801087909574
3.8592652786327757,140.59817352414436,-9.990892952966956
-1.836812032339302,62.48765104398833,-10.14860595021776
-8.754673847668418,83.79761809291453,33.76648792399763
21.33355874958938,145.4620505498307,-12.618003858200261
-2.698136163998883,59.27493497489683,-11.623295035154504
29.40900574859552,140.57045569096988,0.4799021658497029
-20.205614509326907,99.68468735299832,34.23484146702608
9.152228391204469,2.521259828224931,19.024630934877667
16.477778225156833,98.79794456891382,-27.104404165036676
-12.645644227172482,44.05689790186095,42.55866247009406
1.4298428277010866,109.54955040522097,-0.5266942103697961
-7.075802021441295,149.12374507431332,-11.952231015965637
-12.88375242583194,82.25549344487287,-18.673528963915793
38.92441139611489,35.014444142684695,-16.977162627961736
27.11049773224372,66.91462544833952,-10.161329451081606
2.907074263584765,109.19004514523724,2.454828214896723
-7.082617239703606,141.29745758729555,-11.693508376019386
0.8312856289678039,8.081353301223126,-3.2767064259769048
-6.103012886883203,82.98828466350777,13.902300161672464
19.258179049609932,127.41131160083431,3.615287931509555
-31.546980965733365,54.12178678675919,-30.91690879873256
-1.321238252770803,83.29943771343007,-4.023903333523739
-18.58115634274207,26.362419886074,-45.50563506695511
-14.93834955569361,15.915194950803729,-6.348962632151271
-3.124575305621519,146.15522472411533,-42.072848287159474
15.102423005707145,143.11727240813724,40.237776686167024
-10.417056656570766,90.68768504876522,-22.107177821586884
6.785577881967434,15.383188691165783,26.74784089129751
-5.772153499446871,127.84442524137293,2.863570224470284
21.23268394446358,10.611477234851474,-23.190194076550725
20.83445011065153,67.57663662064729,21.3074397923773
-3.834166789715344,31.428594932092246,41.46209771119488
-2.3939653428907444,17.72872619727591,0.6590809913841449
21.561240337658575,100.69267021002497,-44.61888751099349
13.06075669177482,24.162695163588825,37.83428855778869
-26.53445332515862,63.95570440160247,-8.00625918621583
18.728149148422055,97.41497046669335,-10.450184856841254
-42.00459769692024,62.781882831728424,-11.585790409755942
24.093319177457666,67.92288451401348,1.682611742470686
40.3835822224106,7.877116379155375,5.250281670229502
11.879075328953205,57.386800883122206,22.951848727040094
11.09040521715956,25.527209728416082,41.78270642612678
-27.65376773424924,100.16611748409645,-5.429504148668376
8.493907222989778,11.208622982437138,-0.5376821570740198
-35.25372681720924,104.09462094246477,32.78301459947697
-12.427816996090115,53.9362181373832,9.071451258657715
30.916686742415475,20.273311237547652,-3.0193681289623573
33.24682355293689,121.36727991243109,1.903013720140446
2.5061838835693324,95.72018225798573,-15.808874653209525
37.71347301244135,123.03139629242682,-21.915452236902798
26.79189583285099,111.23799634175428,-21.05356551088923
10.721205298862563,109.08286662724123,-4.426092484684653
-19.508644645519173,147.1648887503119,-17.80894430306058
-19.96189532826992,40.64422723936465,-41.151322052621616
0.5972513163419362,49.92348978431645,0.5262282255065264
-19.323922724198034,74.44137130090209,-11.954439182031308
-32.86531474495432,30.24252732918941,-36.74806250493331
12.642506708896576,141.67351769161425,11.825815400777996
12.311450715052699,66.20580039067994,19.402428683852378
-36.6530472342376,133.32242788813346,-10.383421732652673
-0.027147889157582074,110.8621977490723,22.183402220858124
27.815271159410393,108.31261109497576,-26.520968998913045
-18.273967741050864,124.62184020768468,31.201379024505393
18.563979197252305,142.22125841982373,15.923557254022946
-22.836685460898376,106.04495875726468,-9.435583400603562
-3.5705068641503974,1.8138234352200633,-9.952570439718196
4.223741915857149,74.29387439323818,25.63001302782894
18.467515709471584,2.9339881645581434,44.26685521730869
19.243081659496088,4.351852262006678,-31.558420587359517
-16.053316040140523,133.41177074021257,5.1852225632083995
36.13976597177826,25.63097218833891,-8.459322100610907
-26.56117992066097,116.14410969468975,-25.107474000714017
-26.85956647230231,54.770693783870215,17.807635761284768
-9.90777118873156,23.18827752041701,1.8579418554161142
12.650542696570042,26.459300942646248,-1.3060514606799005
-6.69333934235423,17.340315039094236,-13.486360069872136
-35.300456716912215,137.59394197387473,-26.03163635308225
11.131924988184407,95.41419854192927,0.2379391630453521
7.1979021873156155,100.46517492231901,-16.322414394828193
-7.2611011163819965,1.6851466344122934,2.38508869484919
15.294271639706604,90.06548335073207,30.426943485027593
-4.362418832923312,59.521376498082354,32.27792816388969
-3.8735421588074503,20.14520059210141,11.309184825959656
8.148659788941803,2.928152326322336,9.035960301873429
-39.03866406134144,77.04193352160755,2.4276875855043123
-16.47364426305083,97.30576941871647,2.804156341490114
-10.5963196699789,56.327635718238206,-23.812888920931577
-14.507314030484217,84.46732207458437,-7.4465762370023585
21.133862499346908,41.15431907271028,-3.79139583283267
25.27440556995225,73.35590416092772,7.964281488320242
-23.850726363809887,21.55977359932703,-13.07285617186266
36.71978736286985,18.381833957741193,-7.955701646558863
3.023304399043297,104.22465898603222,-22.671068576032933
3.103046328646774,8.712384538350248,1.4183645538753549
1.8806529557474687,58.79072125536237,-2.6543402043176623
-40.446176789645854,85.17780136452122,-14.214863885338035
0.7569417076600007,111.34196050124488,-2.7942479087483223
-24.306329114056464,0.7894149613729362,-6.187111611621708
-19.449487542152152,0.617741671117733,42.900396579157736
-3.82553071803208,69.6598168589209,2.5650210154368756
1.1115446448886632,73.72633502949643,2.716993849832658
-27.595387695894452,124.54740313976704,3.0303635835388856
-40.95657582254138,145.6564428334556,-5.388478512073427
43.38998581922676,81.59005205804598,-20.704558115225044
7.573894752195983,44.053261560812075,-46.795105668578394
43.11077898376645,72.83461375244643,0.15143546632370283
-12.191623541593579,15.08975753971264,-14.9491115738811
12.711654353098854,12.725178311909168,42.79667009853276
-1.6157444521330209,21.134723970439346,-1.2764770738802622
-1.1239434773856414,22.45473128042988,2.407724308966185
-38.337148874715574,28.67438289349919,16.900508035797657
5.8306967397350995,67.94491250268854,-6.08284919091218
1.2536114175925424,148.9296735655542,-1.3008329967874515
8.573395224205788,125.37413154563757,-18.083344279426388
-33.392754294258765,122.11111755562905,23.326797156723813
-34.26893216513287,62.267466650335976,34.806142101743795
8.06842959753691,81.79069454575561,2.0636048350114735
29.185213177863137,68.91602218602554,-17.866907550547992
6.925985183270083,127.5355192909532,5.175559184700627
3.6191406053687256,108.27270694180015,22.276914097195032
-46.23294651994512,85.91658006677993,10.563466873092898
10.353073480968686,93.49263579617946,16.2026879266597
8.855180479636916,52.93558172727587,1.0483004911541385
-8.351281378117488,87.29847267203404,-0.6635529237828737
19.12023814378404,82.94762841788864,7.1298127853233
3.3685838017675946,14.446053901130174,-40.64470228112051
-30.763434940889734,75.89649517533277,17.619815689059045
19.707983408000036,37.74883822643364,-7.763555246050031
7.898618729784238,5.818969828860099,13.768270486597547
1.1899341888700308,124.20443462052413,28.383311528670813
8.312666148934293,15.026641984539179,-23.090763575708685
-28.511846415890087,110.0661394032423,-6.78783007082436
-11.913387605624925,27.904866928761045,27.262918698131976
-46.70900059942516,44.064939137378886,16.52690902238206
-18.6948135739489,22.20537500678684,-40.080455870198655
23.392693760806054,49.27861147023547,-38.40387034088858
-39.977912887281555,34.89466649198776,29.41372651392033
27.410131753667024,56.91638107179685,5.759991892086239
27.804675783741864,97.87530520958273,-8.85715227740026
1.4456883983347721,131.05234982255618,-35.09364996128094
5.678680472510927,132.92416766536675,-44.78284924642284
11.4702369640111,40.77330214176536,-9.688717313217168
7.219449720087695,90.073743557773,5.663025507726103
-17.107930059898596,78.67520411240028,34.955000679827386
9.417827660798181,95.4622388479301,-3.883580389738006
23.623454309609226,96.878078114198,-24.247116563971232
-29.343765570772742,29.72187839600911,27.97251563541831
-14.770529444792242,143.43737617575226,-18.046717450335613
28.028574988513554,35.647025258040244,2.8268650232868384
23.48162200213402,12.440739681621798,1.0652576870165749
-9.592270603779468,50.237757044724084,42.98628051450946
-42.232136767953584,1.3122857721379388,-18.188193984135577
-10.80870072662552,84.15525690189943,-8.263924017135553
37.330728705752826,98.45099997686368,-22.61691686799695
40.7352988274872,12.7439442719672,28.93578398485864
-17.66663402209127,25.402812261302,23.22444309495573
2.1392510374071567,120.59190485200243,-29.828062283992907
-32.77336985144235,133.1327395090707,-13.197669126842436
-1.803194174232911,9.667953962905635,-27.560564676369005
36.21284930768674,112.59968382614666,32.823136933414084
-8.362206736579177,118.61870058865995,11.327478655487358
24.42947042933069,21.38106570135817,26.820742911885173
27.061777306436408,50.77521117684713,34.79741887188319
12.739067832170232,15.041419474775363,-13.113791544134713
-2.2163041606439497,83.58837019406587,6.115925465488945
19.36195790386108,44.493706470603485,19.935348856422863
34.39580030800251,140.9720114062421,23.298420819593577
-6.873103430721059,64.54941448676887,2.748662551108299
1.3782403445602562,83.39654500102631,-35.32882268675161
-1.2510760113051513,134.93033768559437,-1.6732827002217416
-18.54799555880586,4.015034624568403,3.2080501894109257
-0.4293508306663273,1.7410259875239475,45.19204236754499
7.816660010555198,50.869153102424406,41.56603515425048
10.264594992801452,34.86789543481082,35.75170286177294
11.744581991216467,132.60836274213605,7.033067561926185
-1.7006046679901974,137.58053473409106,-49.07881763950039
33.244590806028995,106.4734382895869,22.160115855961312
-3.4407179021934877,101.25354150791665,45.42058026170995
-24.248532135364453,135.39961764642908,-30.34414531171182
11.861311422443292,48.71059943367471,8.860517730435795
-43.99615276937721,34.43318230668805,8.134406251403666
30.682758267000253,143.49851343151013,-33.79785345805851
-10.016119219365395,79.91400159275317,3.864662566654223
-21.55265197521574,20.702679955951375,-34.20603646965039
-1.5486395751742925,105.60723542058841,2.0581408705619957
-13.06649753759776,128.57863854346968,1.780627044313602
-21.49296371311437,44.622649698813895,4.103191475665992
15.81085935985603,134.72737095336095,-0.8155775042650213
6.2485248777923195,1.917356949735305,48.25298696886629
-3.364854976473242,83.9236634634128,9.434922972852728
20.496241091076172,119.84791748342187,14.115548533682116
0.3644503373864502,128.34677009304218,0.9527670221624068
-5.69551710844888,99.53803431276376,-1.585145198293399
27.20033100761033,74.02298824443547,22.92837778500936
0.3570376648465678,25.90950106354999,-1.0752389640170803
13.94588118229757,89.92123958269121,38.81611346889087
-11.85910007707587,34.6877153676151,-30.313467045743174
-20.662510335435616,89.52549039266273,26.641802775364564
0.8460836581943727,77.29813809333332,-9.402923456101327
-4.2835167324986845,129.34528352374141,-10.295053475608139
-13.192572281774162,59.698222073939625,5.01374820018387
-0.9431650801365266,34.922852278002416,-0.05213109187462922
2.9164989518435487,131.4401180364229,-20.77775678852132
-20.919964083412324,45.19545276123409,25.718756582353457
17.225685823397765,89.22344015721433,1.7480017598691218
-25.455951661497036,71.26649500415748,-39.821218466342096
23.10924924996811,82.6413688905497,-2.5573994460205354
12.692367216009576,59.95372024935497,12.66594918958115
9.509815489466238,149.03876455838198,-24.91691341105102
7.857990009561606,140.24070302022372,0.5611383541002323
-23.027567864593465,130.10035476328426,-33.16227000930997
-15.427791895334062,43.10012800428892,35.01786425345821
9.160018260136232,47.7035257481231,-7.054340005997706
-13.366328822678362,97.74440041673688,12.522225030717056
-28.59513818344782,70.55383044166852,-14.1749646703382
11.307761900258663,25.022634042068688,8.90955557727725
-16.395635371052318,94.75663151009964,8.477425781634262
21.09916997873894,20.6704470079409,-12.102461372662727
13.09236616059727,32.150433541384565,7.71349598670517
-3.181937926499122,49.83185536651298,47.53790522768482
12.716265347063036,129.56119254779205,-35.07863324921565
-36.27142520827421,111.90035443536213,-3.9628753308864537
2.7341437062534664,3.2691828799160607,18.65449307047799
29.921968045717996,23.05461217163237,-12.293101019732447
-18.977635889539865,132.27251088747067,-7.852812934399198
27.908917798841838,62.492009668067354,18.452557413466106
21.9933353174768,126.10052635304928,20.076187585635097
-4.688012961294457,15.698827957302441,10.516458665043132
-15.80912546182402,35.7463106615281,-18.886823394255156
-8.993371111753373,123.66405449257506,-0.488369244921287
14.877082318503737,36.2935221527403,-26.339521907485206
-22.312754085942068,73.76463104493362,2.2495352055425832
4.9082656399099145,0.006312059511021095,18.086131373379803
-5.6391307623841875,43.80538536710979,6.2311445984358365
-5.341955400469473,17.987491716363756,3.65939434494403
-4.836067981237524,126.50917371601867,-0.4284667919388049
47.1860000456448,11.312623632138347,-0.5985132558333829
29.86416563771824,20.251228167779477,15.189224906237891
-3.444631676959039,42.591458063814706,21.21928484105283
11.044339948179163,34.83487658409385,-45.9632917009959
0.12678065040172093,8.122255243067883,6.446845047637708
40.569314551164126,106.24438860535247,4.984605573693424
-10.678471122720135,31.723322549655506,13.673079097909454
22.66142066381174,108.27409037966657,-7.7922162520594425
9.43977701996666,81.83964523176954,25.35145932573644
8.622171277882853,61.28770234317461,-22.245575498819303
-45.63076156735284,24.017954963725913,-1.6110702492272442
-15.416603372282237,55.39856434306593,10.312517048898885
7.941744509428903,145.00862600450785,-25.2830447023171
4.449553979350177,133.43012729665327,5.2720579033986965
35.821691199573166,86.87254003050573,1.5967936602928507
17.137727151864627,64.72072925261423,28.800502486479804
-20.068410095891217,90.25171997556751,-20.225790679327673
2.290168423877575,44.08533708092168,-3.3105950101758888
27.47131738223629,129.5849057257811,32.484504828840045
-12.903231792107293,6.731096925593516,-15.362924031811017
30.212919636108097,35.56006996539288,16.27458641132742
11.800865457660544,23.294894424217734,4.019848983453807
-8.684996905359844,123.58643013547605,17.700703514862255
-3.0272210017543295,48.722416668807185,12.115360343306941
-10.053781837347419,36.40589204171532,14.581563093544982
20.135396621577502,14.380582572682393,-11.833731134868996
-18.039957520234932,126.38135611606658,-4.838925530333244
5.035084256147223,34.22627263434307,-3.6394639770711312
-9.788388578258292,46.257537961096084,26.0384201236196
-2.335640061643818,115.35659848419233,2.2918825402098792
9.366472455408537,77.32116141711413,16.56746568091973
40.27939274474177,46.089711221459936,-7.582699208120801
10.566873190498354,127.41678798009085,46.40160933335584
18.2940042294318,45.10195036695377,-30.051692022899708
-7.147041724920069,60.179110663499245,5.777700556082327
-1.7915581269221912,45.76879744598364,33.194480565253684
28.572236121296864,59.99625028795812,4.849124844690037
0.49748752147022113,100.26619086823099,15.679982917693929
-45.22255560870591,147.61376978941263,-13.878890013325435
31.299272752953957,23.80901113750056,-0.9613265886144058
-11.985906801524589,96.260835468375,-46.15025791409223
37.43599124868434,49.40867870925699,14.400475865818555
-9.832449552123512,40.210720046044855,-24.03053155969413
-22.144025407588153,34.921095624528334,0.3610292715416706
-20.167668909936648,59.01372509419592,2.8866833577984092
-11.690506439033951,141.6847549647909,-18.565410307299995
0.2558522759641717,0.7710514720885631,0.619829171758235
-14.455409449029274,50.65055935293415,-7.629276346935774
-8.91190151992102,84.24693832017216,-32.74934439835267
-4.2708491384963425,22.282763149343694,-17.02346399938697
-7.697886277756137,5.0761047904216205,-6.93657767289632
23.96493553262506,141.52647433163227,-17.547383444344288
-38.87166434724497,12.319195921100928,-1.8776164617553557
0.13221772761106196,133.03254031927966,15.023280312239825
29.839293202949335,63.98465691993186,-23.25943075533722
2.5514716606891614,3.5220128443998022,0.04653285190759688
7.623205542495293,74.2724705899255,-23.71583052858721
-1.2174727640698597,69.17618882549337,5.808792367938951
-42.82669604414014,98.15465796454733,-21.417512358843727
36.81422099351327,21.133878640184133,-18.37634476263293
-5.8720742694537105,94.59252694112598,-17.892324884066813
-15.977343405427552,27.596862638294244,-21.075920528520427
15.147692670593253,49.36896742681983,6.807108337921914
-12.42722664402649,124.53932115457017,-6.127365386207136
11.79585129668467,145.89472694776592,2.0507765508371585
-9.354970368438341,7.106634772133513,13.06528586542111
-0.135733932640799,148.31875732377233,-16.682932608244464
35.2981131362218,46.33673735099125,27.69308171339804
-12.401035866081052,81.82401064422282,-30.612739851919013
-38.25482611976052,3.614016028585021,29.796065711255586
-12.548236168828696,147.19156880659483,25.357592222298607
24.81127165641283,103.28416412262648,-27.93304652616848
-5.441315623689645,94.56017541225904,-0.48262836528377423
-7.9745627837284445,25.742132773677962,20.963757860026007
-17.882557554222984,92.36868548461503,-1.896749762709768
-10.810951752912327,22.080138832942094,-31.22531651811146
-9.116493177816947,114.07870126578189,-15.630243813177815
11.976743452204303,134.68742745570037,44.36653339882153
-9.168536616758097,104.743167851995,-6.013736587642929
6.7101406257299425,5.3331701567045755,-31.704809560408822
2.190899144908427,65.17127639628325,-8.152160540350526
-8.539789657663507,77.1115545269283,-10.026570308105832
17.675508104216977,4.666343577090437,-21.59714841224437
0.8451561124842301,8.968469946528906,38.52568871415015
-18.428645671470345,100.84227820042261,-4.986994263342145
9.545317826679238,64.3728269821908,15.193073777076295
-26.858866177587764,64.87072039972882,3.790058987120992
-11.008914015361722,93.28678039916666,-23.88948799246366
4.5725653307635294,104.90902742098908,-8.948596966989555
-22.319493583887116,82.49572519846821,-13.066591810270472
6.5807334103734885,37.98142510382694,-36.42938998230544
10.743978382336676,84.18991701335125,39.52649901611583
20.739338039555136,74.67420214963559,40.17035718464098
35.72875963017738,112.5787076260905,34.55442407759299
-44.23788723731678,64.15198608770186,-1.4234201084122529
9.230684757705982,99.30416581514751,-28.640903720425055
-43.95761829620444,3.408753623764854,-1.3537966006364328
-5.6244088859449946,81.59726831472109,26.507004190787676
5.787516919234762,54.897985921032976,43.57388927668199
-6.083468434673361,14.629521790189571,9.693908934552212
-6.417967865138236,23.52587488610865,9.982828519903679
39.56487644505125,74.75779779129326,-19.375679097548502
-9.217903118425665,25.22296628821924,1.7913757307506348
0.9602766162532694,89.76371491945726,0.2037515793290421
-14.670402288936517,21.233988721312336,0.6500439754953249
-3.711475306793723,59.5772600587926,37.67341702884557
-3.051119584899308,37.580676193051296,3.270031384374094
2.106898860603128,107.08578736909755,-0.6115587199221495
-2.9788646988792284,22.34882981735149,0.5191550926252761
12.496005953737573,26.241806261579182,-28.569817184900412
4.0242053728848814,36.169273604818144,16.55918375600687
-15.993306389985378,82.83713361006201,-27.063109511174186
12.98197377059582,79.82819831261382,-17.23969497303981
-28.264029652123007,4.154911662128158,19.76342175397546
-4.762975145164831,90.70232160774678,0.3919038018850804
-15.087467633858534,146.5542414500014,-27.260097327816787
37.78546492531167,47.41480401899402,12.272216217947708
-5.492312821361482,78.03973707654862,-37.9954533678325
8.494281232215018,66.96023040189925,21.99395354812532
-1.4354622940193158,109.04720650593606,9.386301598184174
7.588142483725752,87.26789786616486,-22.401335043052175
41.79988113471355,135.03586271022823,22.92125792378319
-22.71895695790387,83.49399355708,13.875059147261435
-5.183457585666438,44.48056383848237,-5.804639333586189
34.19776529776246,32.61211187343082,31.43727572279576
11.328302447927854,115.38641560917932,-3.40875182712362
16.223377823041673,26.65865213502568,3.556579399596277
-44.04884480951171,135.46697507693753,4.050205847166603
-23.635364087763794,14.498600676146328,4.726129842433859
14.98711834153341,115.96933370153013,0.6926983524981517
-32.80484143380855,127.4809522215912,-13.635155469625483
1.0442419679185235,23.08489123682151,26.357900600855785
22.80058376394925,0.05089766715215549,24.308859890148305
9.227408443637156,68.6958814051959,23.063865919586366
11.575122860342441,30.954843119081982,12.865688960694897
-9.81860948495094,53.39581993185679,19.57863427773053
-18.7437719865707,35.35212179984564,-40.05820752769201
-29.1418356155148,145.25617512010965,15.001947852500857
-28.12266177642633,118.01026296327883,8.550147374600796
42.62660762274219,8.222285453711176,-3.0965110416154933
-35.55508006448288,118.38317215031545,-16.186348048055443
-35.49209269181717,125.68057954106014,2.9408152558346115
-2.8622837391765223,36.13129213293933,2.750680505209875
-3.1955920416347574,149.35936297478867,-19.979748081203315
-4.838874575781031,103.81638746988358,32.39499617964525
0.30784752405048454,52.46698663161318,41.89994692275013
30.148554974073612,53.254076436016504,-0.28613986930137447
23.804854505248663,62.36250547186935,-6.47703387501324
-0.4691479436586913,35.262520763043064,34.84028716859005
9.41140098739613,2.6012409645136456,-20.622266252065753
7.803715867630966,16.312320263785107,14.190517052120702
-10.969934096831595,42.095542751010896,-46.37406724599612
-9.95252705028995,75.44421810050214,14.860832303999308
15.421128423637407,134.76696760845695,-8.595782669684406
-3.495305258097813,67.45054102700134,3.7164067277790145
3.6514188602319457,121.93362384201403,-1.5178206338201206
29.058965823311553,119.4382727677467,-8.929496636036063
18.646928060648655,110.4123533538659,19.280662516140403
-29.711718086492336,13.37205039925043,-23.696253109115677
-40.5445936196015,140.38647117249272,2.291472433379282
32.60109875548494,61.37416362416583,5.510149657922679
-19.907631824826282,86.04092090053065,25.283049414954622
23.692802062103723,128.79145194868892,18.878315508763706
20.975761196995187,130.78743494066597,31.228553569115597
20.91828353000938,38.62616098992414,43.68529234340007
-0.9910630994617858,63.56536723753098,-2.7709994155553574
-43.50335883122035,136.06657303982254,-23.825669755665718
29.26418590865996,66.88897717995009,-8.060873545371223
-14.886240999328882,6.413448346872225,24.050880264513797
42.06226512675206,11.961184142706454,10.486099561601092
-2.85188299234577,12.945561843984926,1.984590356673162
9.332356880865007,16.28402219861303,1.1693839048296892
0.03142655758816703,55.66553263644525,-0.7645764173525925
25.576263293503473,82.18294502890673,-19.350636116088246
-21.542520155719064,99.1454595080958,-23.40767637460686
-13.833315336274799,147.25300495432236,1.7311957805401375
39.82391006567144,142.24132535093702,-7.487742716100939
13.053792094339043,93.74505081333604,-0.6539508353197181
2.5987908166187927,126.92697062912154,3.1959793892901582
-23.68024292859513,42.988424050018764,-41.97430165583741
1.1785723858335788,149.53170202528955,-11.024884580683846
-21.891694435824217,15.39560266364336,-32.953483555105144
7.2593645491817576,11.081783135567063,-44.49966066702066
-2.497175554338507,45.93596371195271,-13.31746651237883
-9.797272153196998,58.81149129759973,-5.704512387535311
-3.4114161204827194,30.09171269768626,-1.9832270883753276
11.05258250065001,18.550326419181374,-9.143149985275773
11.428558032016342,83.38321154757199,23.683265716799642
-28.97243064384169,70.6106767600929,-1.229481538447658
-43.630956389077426,60.6689571615099,18.943019792711002
0.33860733445897967,93.74096615656484,-0.3932681000321161
-33.29184465379805,8.534747237509222,-21.522489366162997
-17.6142743137582,46.49893792426427,-15.336166064681771
-6.597001335467307,2.4339435082707475,13.094034743979403
12.12397853917197,69.19815774047794,-1.097371624884922
27.2842271071348,52.276184348751656,40.34360581167685
11.336135758604103,106.56296107631147,17.859859627760795
5.780788625259709,58.86402163029105,-25.577849796809957
-6.7146032138708875,77.94543421619315,0.6130183339724014
39.83899025167132,133.8804023941764,3.993796887033643
-7.291984457663858,100.73085874433913,-19.55278630503324
-0.8453517679066693,83.03934187097018,1.0222089144368478
43.244496461742635,13.954662305369304,8.814799089168606
-6.522927445969794,20.188772854509335,-6.0439564204927425
25.643675742541216,109.59402596139078,10.412622865525119
-25.941668034032826,95.90449989968613,-1.8473291943797119
-8.690142057472267,114.74197245589272,26.636306320768657
21.44589765548656,135.36917567406383,-21.04827652894708
-4.135477499279482,89.0307107649624,-3.5178913188616363
23.971327928519628,113.6974026386516,-15.397708950906855
-3.306167312094931,146.65397513842453,-4.535756471552713
15.204351838539123,87.14453208009503,-5.081249283823296
-3.3050159824588072,40.213588073858546,21.06773107436846
-23.698139368313925,92.50062330610673,34.39751544723581
37.026730661901624,117.72326125383073,-0.923367866833499
-27.953011103668974,111.40299384348175,5.44825188534336
-2.0840128157648876,67.2769057164679,-19.804669320258615
5.3712634695487385,115.36551010491779,26.10785778809706
-11.235978303121701,56.57777480005153,13.289563807104175
17.974970302467668,118.94460080912609,-27.043807655744835
8.373496342288222,92.47736743720417,0.3610420409613671
-23.16043197964144,93.9623000317782,-40.32776120838976
20.291895491458106,122.32972548066145,34.77600833285249
32.239615159290096,112.3778893594273,-28.786537647369283
16.95772959695069,67.81467644203559,-3.14352759398819
-30.804790170404885,76.52191721320725,8.191367705587814
10.512386312972996,9.168568355132583,7.068225756917066
22.14484909277628,125.12751291227184,-21.95591410190403
28.348804573222637,142.17034379616138,-5.72089852153693
1.5843322484520133,88.37910898595369,-1.401324743626496
6.167371529779086,89.62114812106026,10.051879037335404
-6.254052312563999,32.553499195023065,25.466728084149082
21.92989647745463,32.63789515923749,11.212650921585716
37.83121408218302,134.68816295611845,28.012605931583764
37.68244338408313,124.09537158683783,-27.852981826717993
-33.47410376747679,130.18755587737795,7.89174105059389
-3.2224970335206518,119.94227100467609,31.890144935153412
20.846752035836406,56.37591010894771,-24.79164961096505
19.118436779838817,131.64715354215892,-32.116257525129086
-10.07484018895359,107.64753619904452,5.7533750175802405
6.717395217718509,46.24184982569074,4.145176610261487
-3.4504958727632227,7.335985850431332,-3.51372111877867
-1.4926251637760692,123.73944790326016,3.851016627045647
-23.010030669359686,110.42734562257289,5.266645472193542
-16.67427507921846,30.43715863850484,8.178221971683294
-21.78651503299948,66.7207948902339,33.01389817995372
10.347384689210623,1.3340727084844295,1.7210353652113883
-23.1101837382541,112.47107987490573,5.428925007590523
-40.40395076602646,62.30022522859349,-2.893836452892215
-35.08438052655366,39.592719622599596,16.858844486449023
37.08745275293351,10.189557188700965,-10.8348808168486
-4.552132403211564,133.5796668849428,-37.88464570683744
-5.019894891680319,24.285207599368185,0.7742866164639929
3.2909273669611774,148.96847946099848,22.847386760162774
0.07382982069400498,44.04619743224895,4.491955233823024
44.31322416632764,140.99381954577655,9.053386464142083
-2.7132637763374428,55.70430991175603,-10.672934792882627
-4.8410274553772945,133.8466305739869,-13.75886977289717
10.276595880833362,59.25521907285849,-5.734323834295684
8.545822875504458,20.42257163794759,8.168564000665379
4.781156849327927,102.23808875435884,-5.449475248834771
-0.22218121727730258,36.281607924614626,-11.414101088482775
-1.36314397460299,122.71810521110383,14.666065162692265
-0.9802826206497873,83.35891379309135,-39.09701719815012
36.15240749125604,56.40905249055236,17.260175593776772
40.02708722396429,133.94056639733785,-29.366206415913602
6.290700014858622,145.38064682138486,-21.653530339309537
-15.061551165506813,118.93291197512089,39.91865258736007
7.700974282882332,104.9617819079876,5.771139787529644
-1.715068175067119,80.46010339661287,13.040319281806799
22.29938034857006,125.87202380424645,15.317073046981331
35.60503981136156,4.686713955373212,12.843517470670925
15.938814886694392,60.93591216634467,22.553651975108618
-25.84762783157244,10.843379684175392,30.722988455611933
23.92523763010612,112.68932023277054,-25.85867178059118
7.333261031229356,87.7772194686518,-28.59619358688798
-11.752926007045223,84.12205092683887,1.6680397126785653
-21.114803774663887,8.520786683084236,-24.918508706467318
42.84298338531484,79.77016308329819,18.18508470790822
-23.187020517987992,14.289843144337233,-20.09915348784944
-12.844713106227431,88.73659845637573,37.969148463869466
36.63413175667404,143.16779451091125,-17.82424104629356
3.53819073404154,14.663839303719794,-5.67517527853217
-10.52263761346323,68.50798573243836,-12.11846218168011
-25.250982714965563,113.00360606232907,9.196885770019266
38.691150040872124,28.247143651330862,-27.870085355924726
30.35706214354939,115.16688343775517,9.546475452855692
7.2771759720321825,125.38454210219133,-4.460885953037099
-16.617175620875397,8.138111930897358,-23.746886297076788
-1.6220366103090322,50.80463788930892,4.299365105996444
2.217961458574806,48.539622900647856,-10.719946275638756
6.143704032122988,34.8130062089114,-23.19157130042483
24.49780009602038,34.46681762853772,4.211379661286969
-29.255268297406953,47.01589204471228,26.50207488065744
-10.756019799330005,78.25091511318392,48.152070506321664
-21.25501263942342,47.556574262875515,37.57574548042527
42.28688637550435,50.780503770628314,9.139053933122911
-45.28179046621465,138.65990623962986,11.237802284116194
0.04712604543085078,50.90247019361445,2.3757834200009893
-21.68295692087538,115.63533118058339,21.882317362181684
-18.052647102125054,73.98617668568306,13.53384957322088
3.6470621386934003,139.55654459131995,-25.06116818266861
44.41840600143427,111.1330213486859,-19.989351691085318
-41.70180585304018,2.7612650640862157,-14.94848073274178
-36.57180332687638,74.94410300026537,19.119336048938212
25.984229667102948,120.12901912709049,-8.985469317057195
5.565363596722103,40.263800553780385,3.5472215467447974
2.5897356321939693,17.874462877993025,-1.8391408044153446
6.064899133673798,19.142742742278816,-5.643293279330013
5.4647818136827695,10.768121229513477,-41.92546807906144
-6.977286015028111,138.00089789229813,24.93564593634913
8.352071620749532,133.43755374094016,-7.1968049713142594
20.23208196438699,69.59642530748152,20.068899817012625
34.491263005136105,77.15046379682155,14.15381297601849
-12.534669369492608,63.04204135440102,38.633140271813126
-10.665558571079822,37.91777638496825,37.155822419261234
-27.37400869458778,99.22824020527027,30.026291386433734
14.351101589661234,46.669373113956645,3.601579080521843
-34.85053327934534,104.60481933278655,-16.92526564832742
-30.491252466591952,142.07660433258192,-21.414453166224085
-23.911511346356697,64.58583793802838,19.966718717967105
-47.251444434454825,14.1359016678405,14.943916768174814
-5.292830013714589,117.02768200898836,-14.127143371173744
23.731499755857612,0.939349663321204,-0.27207944841889586
-21.271871459410928,55.68271940153047,-36.8337153880083
10.688586782088727,149.6980496055623,-8.395649833589157
-4.719333789025279,51.38175369506905,-13.671013943482878
2.0793542346658955,114.14456919947935,-4.228623735080354
-7.903176802934145,23.794084178933144,-23.86866254939635
-0.38128776340583787,71.84284222311638,-0.6128295569276012
-36.203856427391614,30.834910158287947,20.74567120333747
3.59493668332891,87.22896962474066,10.129913132034048
-11.774396528980732,58.4433643771659,-22.6189063886799
-23.756834469881973,49.167827664399894,-25.677257272861894
-9.829898594365234,13.612151638080904,11.279898447679676
17.11832301234187,49.6041866148896,3.7829026545916653
-23.08416493499732,109.5884687808049,-29.368684133079107
38.63374328299309,109.16175665861442,10.774241535112502
-17.808647012251225,45.09811356074353,-44.67725085131608
6.469298910489386,44.41773051492807,-1.3803273708777306
22.538441030973623,85.27415517146547,18.021585616235477
21.481259632660453,140.82724298318627,-21.953952324998287
48.12337758906191,24.593185341946118,5.619555268366026
-6.676695481055518,93.56573628999341,17.747919648321414
6.67806410626285,5.434467322799219,0.2586343291935213
3.612560691270607,11.780662021237815,-2.214476441912124
6.709074670087841,137.57537035483188,46.583480691649925
-33.69290556378395,114.59470039996435,31.23481696156467
27.53106405243744,29.75760675844517,-5.343960761469364
-2.7778044970692974,48.51514147856889,0.10977858636429197
4.379335852214849,41.53280771299562,2.5423180253659856
20.781065257873465,94.79886966847268,23.44185472127338
5.374231267305348,47.529103797647835,-12.98561086506356
-2.528216535571474,27.187258668087182,11.174490064789682
-23.901385243349008,91.81787204418053,3.293316500569705
30.07124422192277,71.05590751338737,-28.1189424579878
-2.962528171960757,101.4269008832294,-0.35151016936718243
0.5767089762256825,37.75763242986666,-6.019848630498709
24.908887651461168,64.04770504615506,-7.6537111108627505
-5.731047620644637,22.752575229954143,8.094218241136218
-20.528617369136413,95.84736969664941,43.827678439715825
-2.609706468676225,79.85646024977714,3.1870154376115165
22.680546609875517,18.185122233142188,-3.0059698166020468
6.849918949896335,74.1013375392451,-0.8686158941903214
19.468297330780143,125.94711091413977,4.268667176758959
-9.02413455240496,136.44635562620408,-10.669196094080046
-12.56281910660896,43.98585652186664,4.4939289161330285
-12.738959611812938,101.73799145921726,9.450262458036393
-12.401589718333817,119.87137277268982,11.558454931803173
20.888471481087613,46.01437268368352,-16.752826839299356
-26.965934642143168,40.94698347460535,2.322366062674267
17.614268100046313,67.03658122261727,4.823092818254043
4.399379265224055,1.477121255405317,0.6143178117552863
-38.287454598045215,17.365205332149618,-20.268346537408444
41.01530829165329,127.52331624089999,16.487568908217103
-9.364294422761445,73.3054861866121,-3.26078706307124
-0.5358472886588048,105.77634182849295,12.987001062945152
26.414085370203683,62.23097056236743,-19.21169952402488
-1.5214528579130584,34.02920768070246,-28.59115794453111
-25.121088134171337,149.55210423303384,-6.744336302111314
19.047908685765744,100.89898834253935,23.88019417957859
15.976579118605038,83.85171670516546,10.729012441845269
-33.52747419593632,11.496423996697974,33.4891311906141
18.310877217947606,12.22896830047281,-7.162750596103793
-5.347904993654312,34.83291600337841,0.9882457432590865
6.777579377370331,103.72316449228528,-20.909901108118373
42.930521876267946,127.92131825563689,-0.42618500185854485
-1.6061072998889305,45.3518655429806,-7.8891463898650285
35.15148776608791,90.4340953498523,1.8620469298388835
-5.0465275322863805,70.92266108005076,8.917079593985441
17.718974587102316,74.44210684398962,28.81570704911958
-3.0849119479050766,24.25209674874852,-3.715371249001505
-9.100587699017343,14.952679748231201,-31.8030245779573
-17.252360778608814,76.7253802957342,0.1633333684808987
21.7043771363025,71.62655634853034,20.321968763009732
0.11295153265589139,17.369932128555803,-0.10897105462956651
-0.26911560519354094,6.707523325953346,1.7670700449953605
16.198759686155025,3.982439226891432,3.9842190011399117
4.052611532075093,133.62632090830124,-37.07391473559741
29.903703088948248,57.39983040105054,11.67846451911452
25.043483624242498,91.60558185454381,18.894634324384477
-36.641197717322974,109.67853080895473,-2.933855782405625
1.3600055005990042,128.31572641444728,-20.35682488527553
-27.735047928795954,100.74433558416182,8.750226539175825
3.536677445392906,93.98155777875677,-0.9875071549804053
12.71472760744165,105.25358421608776,-5.321113066894772
47.23360786001411,89.3282918578724,9.81817702181833
14.555004526797761,4.265347139866449,-33.17462193352226
34.566968449405714,18.619395746323935,16.93785972636617
4.3891681782307215,119.19624824326,9.198181872357436
-36.58576622249779,149.79634791294413,-14.238085706415275
-20.483048943137682,36.74842585718022,0.6314929359160973
15.274537629791602,93.37488053233598,-11.842314876332187
-0.03371270972640104,65.67199294232097,-24.343662318134058
-37.4288919778368,93.56400530817972,31.987743413622336
8.019674476868287,141.84029936911486,-25.643488506546415
-30.48828082032067,100.04253934232072,-17.09878352124153
18.331774625662774,133.07636559736443,23.739029684995806
33.55213823019453,85.45157839443502,-4.892834916100732
-12.924776306896646,123.79174900787304,-4.284426026722373
19.98686524024878,103.39581622348778,-39.97497668929908
-5.517143335062482,64.08602691438504,10.828714272270213
26.867610115963636,78.95353004077747,-10.927284938440105
43.64388228971673,88.79317922794398,8.971773382069644
-35.39104282765354,27.45829077301639,-23.139228387710762
-32.03229036053893,76.61095090404464,19.856596852860353
48.906026295401766,127.96097368820747,-7.69829970567122
-1.83286192639366,145.19244599586736,11.129249675159787
4.9965312807826,135.75493876572213,-26.25661738747413
6.889670793658508,1.8321567417352358,-28.6692326912271
12.803042159160254,19.543832618198703,8.95860446083782
10.09923106762057,42.676916268265465,-0.7035036304581
1.6141714725777576,54.78449335740569,6.594513290373536
17.48323386019943,85.2633908055361,-14.918853365445438
-1.2297956074844425,106.65419024437772,9.705367634721874
-1.703016905199593,32.85153464937453,-2.8208936564898677
-12.39129365933344,111.6838869080764,11.303227208873196
-5.350925033213663,3.323077431950056,-19.648393038256984
5.421517623163184,10.72238779361192,7.80957720795971
1.221170368477497,136.26695432364653,25.115938192281742
-23.27794654047862,40.2349509678623,-16.950121113276364
9.342667915334392,20.70369082811257,-48.99909556013413
18.914901020617958,105.1775628955081,-42.12907520725847
2.2950007716951846,144.02454668222433,25.271449959273085
-17.301291857069618,32.734312219906265,-12.44533915592515
-16.067010675553274,35.985405763503216,42.40549087964043
10.523604544937083,134.7510905931348,19.513010373373792
-43.50022872904491,70.15692208447142,3.2418765247980037
-9.979919230056263,56.939154311511636,-16.50942800921337
12.58503586941757,47.97602545571007,-26.93531357831399
-2.0870284871622746,22.640663792378817,6.973025445495391
-13.947851583915991,126.77187088668389,-3.5873797658799367
0.14103059723427883,34.088677287253674,2.774206362824114
35.63651301967254,112.89973318896313,-8.024488688477927
0.6513657247222178,112.67436830469119,38.11074839727615
24.21591442354325,54.04587605406492,0.1547575507309154
-24.936290565132225,48.94548030480888,23.994743863851664
-21.274740688381527,81.23378549813665,-16.849291585342904
32.03465867456433,12.601678010327882,-33.55335203747255
-9.675631075386336,47.383804220376106,0.5341743013294944
2.9424842476273287,46.72627002628912,8.360244648434588
0.48548549973557276,147.00174733007782,-0.6608046630992471
10.156372851913133,12.58899505385881,44.61264136817502
-19.798539918314276,7.560761957521262,37.60656328738862
35.74752927118364,68.94954714327882,33.747642747938265
-16.205594444890647,94.15317641946511,-13.370742196628456
-19.549349252733162,108.6495201063267,-8.301332823364126
25.16616245416974,76.73643169730474,34.79296675568391
10.421476819904603,127.41345548714376,6.454049694500656
9.84146809616925,42.108154423760325,25.539694721181117
-5.740391120235713,82.59178050401712,-2.1510014862139317
45.8901588852239,66.78460532609544,13.419223228552015
-1.6036232121003091,86.29032054300276,-0.47268947442823767
42.220110270543884,97.162913574929,-10.436256416867767
-20.730006761095407,71.74118496364828,-11.71276832077472
9.64956295036882,127.43780871326973,-18.751824950570104
-0.9737704009430872,136.49734571661716,10.192298127628858
9.89248975491539,57.56734530030147,-10.80912470158843
16.26661338877888,135.90327178314126,1.6633975763559545
-39.856194427463215,30.535239227889832,-18.514370701565966
-46.397308742005194,133.3953719050132,-4.075965776283507
36.35132751050433,130.29133501741703,-32.84835186126222
-26.21429214148355,67.18536932500386,-2.5170449691598025
-34.23265880364742,79.01228691981946,1.4670112993909912
-3.3493814079862343,11.386821034093897,16.53040421417743
15.721990501463186,2.8089162551089286,-5.581751719612571
-38.11965155508832,95.54231779169662,32.138355473333256
-25.08156575968726,33.76478761010884,16.382989388156577
-15.852467070980826,80.05407716288974,45.591275273185964
6.718689756698286,101.28250965002042,-29.22737636608723
-5.193862882500216,120.95380533067534,-4.4003829300721655
-11.354714411554497,133.16531705101758,-18.67720379310735
-36.79768705676702,49.53026095484844,-21.585378039548477
22.128503808556445,94.00507737922797,-26.698983503989712
18.819427714540037,10.726558036325272,33.54941693258162
-17.093428658341622,84.95738397722474,32.82654212018207
7.258629044831255,24.5568406274045,-21.736738683284802
-15.004392661003383,9.078970704203288,46.54874317292341
2.073074467921263,96.63956486789931,23.691710901352508
24.350293977791086,38.47909054927375,20.9447520725269
3.364424939328654,82.43881550710945,9.881590713713605
31.197811668853316,32.64258320677001,11.79548581486125
2.3503477260039847,103.48082209286402,0.3648984285775574
-19.392906879472466,126.76069174714458,4.113214257851504
-0.4751836377811555,29.816726147557887,0.40120794727574055
2.7282224414915253,102.62056839316548,-16.055323150201534
14.629795263881505,19.21583967190239,10.136003466147427
-40.579367452085684,26.227760941203737,21.562887451152374
20.712727662168316,43.609286531459276,-3.797261040269215
30.736303957897267,68.91295734730176,3.6859775912498205
-5.938231975538938,145.2523663234392,-5.663701630184338
-0.22661961883822734,47.14278708485802,-0.4045528821827683
12.71374789518187,139.62835648357637,-21.267182196772332
14.372101320267223,68.79359433595818,-25.465724304191802
-6.926704122688951,129.8852888938431,-42.584428564595754
-22.591083208994895,37.93274894274624,-44.403293966217
-2.782261741806734,67.06035222552002,-16.473868463280578
-0.869786964778697,99.76090857023972,13.994534226609694
-6.140599204417477,145.44650816842739,-36.86479019201554
29.348712691767606,71.43856005938463,-13.593375029076913
39.8018815895338,138.88877546668948,0.23425104765652122
-23.32516620101263,0.26614803003445764,21.585171168338817
-5.140906860233923,35.29596956294526,1.91182941183645
23.71903687687428,83.8671078355923,-20.66298910279284
4.2771729061838375,113.03196754816905,37.94256595811822
8.07838451833856,74.30524040116505,42.079041035540634
-8.833374081624001,115.61489416319107,11.351286565931819
38.364271176073544,8.269711128858532,24.495314461310723
-30.176223439378077,103.48647679557878,39.823533531679395
-30.16033820951761,91.12445819711219,33.0320429722216
17.699154713688827,32.59173878864927,45.35374604281366
21.250865154610015,137.98748918638125,10.52395630610606
28.94593053401257,135.97948033234144,28.58215806623308
-4.22971832176949,58.60620851369028,8.779736710081057
34.43487096613508,99.3733552410603,29.643984071862437
27.51063284007448,55.10815031595131,-30.63572127917008
-11.18532523411981,125.11485883646871,11.990569233158299
-20.44614037784819,129.78999889565597,13.05844489230242
14.33313602509052,148.9781027936579,-6.519981012529916
6.341797322212415,8.389868825834862,-6.3239093744674575
-5.553455562639974,0.6426464429629686,6.664449243119669
-0.6605806370681154,41.33893708509455,0.44139130448116226
17.28581951812683,91.74270724793222,-24.19025885562992
-0.7151950791693702,50.68426587712669,-0.38519209053633396
-0.55196339330442,149.4784673421696,1.258464328492717
-25.827141159252804,117.98730146354667,12.576774710168278
-0.6880639727810203,97.59655354151403,-5.301589224167259
9.079115462172993,25.463588476897307,12.501840046065324
-1.3410402563370338,78.96386647834784,-2.392178291249403
36.63830550830928,124.77064508054305,-32.648486826541635
-4.17147357657308,35.2409769888732,1.5820997700166468
-2.4341235804508723,126.92873114153046,-2.8360598462066613
1.0625934156291688,38.04613438485651,1.3818943826042858
2.621036747586254,15.579298820031063,-2.179868513660738
0.9577195013761579,54.222999708181305,17.251287315814807
32.03186306112029,122.47150179851202,-23.015598072342303
17.042780422235968,103.68706771026035,-10.108890022908735
5.005266486403954,79.98060277113098,-47.67506600307336
14.560880818391144,7.630710292850779,-13.544027827380496
-31.223101734178798,9.245163539172136,32.503814855076804
2.5577224400729146,74.78318145424244,1.749722448119046
-3.4193293220443457,31.951796424019086,-6.730919471630973
6.990047852506191,8.50596577107819,1.2731760762713935
35.56008814429518,96.56208330451975,10.81769043027642
2.5841561864539115,103.13104110678785,0.8253109826725635
1.3490065293355218,67.87967858288376,0.2818596460173929
-0.22003208093885065,4.1733004229920265,2.0916578409221924
-9.985026889094954,49.77715701646919,-26.271694038770466
8.155763015994559,100.6840992118935,-30.507115048220122
7.4633117066406545,105.84111274814632,-0.06941406670851503
-25.506352024085352,145.19550405527042,33.54027443502075
-48.839267350016044,64.37473018634769,-6.749473248471877
10.715915864954498,115.47053683530096,1.4413627403906222
-20.58499123490188,83.52277789013031,2.3577593330022935
-20.043305302685532,16.823585216867663,22.345209256990355
7.092404468493383,140.658438049562,9.024255059656124
-10.162208505797528,48.805514403926175,1.081336405410362
17.586758898246707,14.475578151750662,-27.337269461316236
-27.630987808180596,17.769255784561082,10.525249599387854
-25.650250819062208,2.7367650242882235,-26.68452657604076
-49.71044836721807,124.09110405047286,-2.5027698977819823
-45.617128529222015,101.4742196628469,17.920171251420744
21.74866228872966,139.45572914327767,-41.15935463431921
2.95149402832229,70.32610584108905,-6.393076024235194
-0.010828445061434438,7.185347106108514,-0.007753163349573388
-0.5578907720004765,126.94184706864752,-8.407218283938187
17.38295122973259,45.427818594590484,31.624906161338174
-4.084401736800652,86.38730755733773,3.2432680003072303
16.14934432587543,86.82766444264509,-5.862506056212882
45.30849625402952,32.406225154925025,0.5272474899783782
-18.714948587950516,130.29600327612482,0.35667379547327266
-7.093168156014493,45.959035795039874,1.44030405906743
-4.888473806505528,134.54341550468322,6.171684921222484
-23.259441753196274,40.00797358690077,-20.572444541978918
30.424693472305435,1.4674777448006715,37.681101964854854
5.596056878297663,73.2484137134902,42.89291277114899
24.17391597135268,51.079947417937696,-1.908423735709811
-34.56777624254697,115.22676729881152,22.442075187720107
-22.01621090346512,32.864244532544966,22.268290777964296
-17.24440985792438,38.17628343489822,-11.26222954278333
-27.528505802294898,10.721355406454508,34.90737180384173
-41.22217487099149,121.96052762842174,9.728373774909858
-14.178181060786892,4.379771103534602,8.356902102765202
-21.385313060048944,78.92208995775495,19.064145528279454
