5.0002055190594525,-11.440107628905206,56.00284019522492
-16.60822564555202,-2.390318344667652,43.439538964662994
0.7371587268462517,12.182161467705379,148.47893180019406
17.765335933085428,-4.1666281525924305,69.81443572070059
1.9395273930390402,8.90197298616203,170.43470306709858
-2.9589964540106592,-4.386239629597852,145.46930288888996
1.5625692182006345,-0.8503829974855592,102.4699182261868
11.771984833728933,8.42201794989606,172.92312423753665
0.3262246018065582,0.288158511985862,79.87382401086573
-17.800962968865697,5.830972202701392,105.40835465073309
1.5559896660827337,0.9588429533553129,191.61325914595574
1.5471055728737977,-0.39134748334503017,124.91520535075968
8.208367843282673,4.263854273389013,116.45248598885027
-0.06284980718694887,0.17854886052500213,125.55710325240356
7.762473032838556,0.3654380387062756,73.24090718696807
6.25063641683153,-6.416679851483937,27.246355141037682
0.09641614427690155,5.068252932947418,187.4174502736751
5.864346002846898,-0.311038047331816,171.31403446724477
13.140334375588782,-2.2572252646132616,153.54393878334446
1.8856620726878093,1.8983322314867663,93.07189350472103
16.772668185050776,5.148144006625954,199.03926704041638
-16.217504322091564,-6.428432325743969,162.69645671886528
-6.837058262342883,1.567800557272041,89.88027268302704
-4.0371253711264545,-19.38253480290178,148.57897311492042
0.3951371308340486,14.788949140053706,9.065546634401578
-4.373191255274248,1.8877666042408845,3.8045296826713537
17.13065210971014,-1.3468864402105758,165.84439084095672
12.026463392678783,4.988969792537064,127.11358768408094
-9.162120652927605,8.98561849592474,179.30985942846678
-12.261611404719325,11.44205328614109,107.32565171916477
-10.510899264967176,-1.4912407125878853,112.10722066123712
-8.628398123584471,2.311039729775038,176.55319808988799
0.5990705654572214,-1.1237514431912534,164.8276106298417
-5.840700271162944,4.598458409575469,121.31157672815101
3.6749563011240673,0.19656197418253762,27.821110283589423
3.261571674351636,0.36247691524258824,190.71120546302487
2.2280798494207574,-5.55839236036068,169.9134182873525
-2.50334002210131,1.55788499909263,171.61137420656289
14.273179143464166,12.177930294730716,166.59997286936854
13.552729972168082,-6.594708252530761,113.34599029763692
0.11094813604949112,-3.741206231640484,34.28248024111438
15.095685240994314,-11.761716770427563,180.25214636607907
-7.968755462258389,-13.138110587797074,108.77394827242621
11.648004245002936,-9.660984191850158,165.59850217138018
-0.1754785530156827,0.5631652592741676,171.1938125384002
-3.4376444099912433,-11.089498741084837,0.2572269000326477
-1.45031709841417,2.371079739004269,149.69840552222902
0.9565120582829049,2.2029531819512447,51.92881846938342
12.182945011555804,11.709790289814345,58.54115580240964
16.882443729907397,3.4858269957616024,54.33807098821295
-4.501792735773013,3.4611876957612417,114.4048087099095
4.404981286571787,-7.4900785489307955,63.16179247601572
0.36568059881945064,-0.18048064717916462,145.3458800102348
7.729917436678014,9.371903027080641,20.899096112650263
3.6678539976182103,7.034839662657817,154.57668879648568
3.8552680208201537,2.870454466350041,25.511734498096207
8.572510406487153,8.101579113291494,39.397915210185566
-1.801208310431991,2.340196062030132,168.6500887828162
1.0820505049174525,0.40980097980698665,109.64429094520342
16.72471201832433,-10.348506705535176,165.2766528442448
2.8432677713007117,1.0030279402168478,198.9453289914507
11.762623560923155,13.163781448742983,130.1376148204381
1.6050645797515857,-19.932552840079214,52.179142750918636
11.171462437528463,0.1404151228815415,184.4156650420976
-3.529477785208003,-5.540192725441317,12.366589716009525
-12.641788645094227,-0.40400169862554897,158.85153372708035
-8.36116985113155,-7.5365505321681034,54.802202257428604
-9.644704176850176,-15.706022499036568,72.5443047852687
17.23016518208391,3.1860240515049085,12.185633554625209
-8.491573118740556,-13.18616138661056,156.53390121874904
6.1594636895304165,-14.606326393473175,66.69931038957088
-7.287364042590679,6.416843189873522,176.49852052502487
-1.6845447971568657,1.947248471331827,148.35109145175213
1.5783151535727056,-13.707836084084663,73.07886967965209
-9.37621224791858,14.014939701532983,33.2861920689477
-18.424870049422545,4.859800298473762,40.96482678299371
-0.11126907454086933,-0.1784306939184682,37.421191628540186
-0.990259297626249,1.7603595179301288,171.86293664618066
-3.6524071596036123,0.8636731256155584,166.5801813353275
-2.550109193833535,5.662171020059067,181.9097632527237
3.64660112223133,5.727315391369215,44.048971525088845
-3.449675143748271,5.930974648768727,28.412042934218707
6.023409142064268,-7.600097947201286,57.72459372998291
-13.839037677322928,9.22234513113575,41.67275014044336
-7.817453332446885,-8.540838038038277,155.62806337397083
8.293403900252754,6.015758619110779,121.9616039256002
-17.82528152834548,1.3200929156345769,179.59530360092197
-0.0634534342197324,0.9437809301574472,63.73716215186309
-2.6634193216406605,-12.79209516854933,44.5593788636105
3.739422461058029,7.543468411856889,21.309940610615307
3.4319222893861614,-6.630681126199442,60.073268983778114
0.21278805225563913,15.183753980143813,154.73979748541848
-0.5186937558098474,-6.270006989184633,150.36651522453417
-14.145028730921833,-7.656902539895098,3.288848836586755
-6.7999127695698895,-4.182615847153979,48.36183968522041
4.165246149305387,-8.198589910692881,88.56373940533409
-5.407450039114881,7.399825315870644,159.66196204774587
3.532123197507666,14.864698816244081,134.05186182215738
-0.5609482632981923,0.3462209409060569,28.889213461130137
0.39532317739415584,-8.46519945843982,94.87674938427206
3.2047114303495863,-2.2164762195733076,60.14838598863162
3.751961035926981,-10.871273447731923,195.12756657331113
8.477857481090721,-3.413923664582903,96.67213623369848
-1.669353906321257,-2.2398246827432535,189.52584288784345
13.630775764231716,13.203775267173649,114.16070805065
-0.024134718616332946,0.3810338276290251,92.59412776679972
0.015841506778099538,-2.436821830946377,132.38727552308393
-10.90734819557754,-7.6283928095261135,172.2824527751126
-10.526726252687439,-12.110139804404854,4.197768380886369
-0.6543168587460619,1.5884892042237986,140.54100869764557
-1.2524959939344453,1.5781066951869998,156.07089711262952
-2.9005113219864502,12.061774563012591,180.19171654706832
-8.781630249865001,16.45230827948373,157.0261297236244
-0.008807566250452056,3.5877372972154156,177.36677640358812
-11.062837928081942,2.368064801341152,51.90973955582412
4.554976046902555,-5.6532002490665585,4.680721996008241
-1.0282050337755637,9.714060926828202,91.59032239060573
8.702709026643337,12.481890504922522,192.79703098955986
-11.220681159199815,-15.135664151025887,132.6751784397494
13.74985539056445,5.081955427389884,170.33536606998683
-8.477730282167855,-3.3401186843127224,48.73958992363154
-9.876082390721333,2.528391203020339,181.05292119972418
-6.195584067166698,1.3359510997748736,1.0762435003937254
-2.416928933157424,-0.6828238056287861,15.97368340030203
-2.2349878731173423,5.7507708366287,136.03607749737589
2.173571849956253,-2.423042954428514,122.94128894408361
-4.384241180189011,17.70855705015968,157.49436559836198
2.3981210207944494,13.326150979461346,181.5059887433116
-7.972166851114556,2.023487567005417,45.7496596010617
-10.945195523976297,-12.63225329064666,142.74860631371905
-1.377325696783897,-4.343734245178792,100.55054008121897
3.2710246713226696,-6.76706610799998,103.89640908157338
0.7603346591897895,-0.7876163461055938,172.24311766299564
8.718799527417039,-12.467300626332534,29.115608512527945
2.992628211556976,-3.8923849468093277,137.13598479591684
5.778925447970512,-2.351320994515127,122.92803045962945
-6.570132052030831,3.3479248864981006,163.58959406457006
9.84359952564043,-2.2327378054088016,95.32894559894538
-17.399346915490344,-8.800199312653923,26.32404366043568
10.295941532304248,-6.710181821025567,42.584011426249305
9.863967080903768,4.178634947007186,64.74426253686315
1.5501187040475448,-0.869239368456571,35.15050396431412
3.259161502312336,-15.598986189379326,44.834278915810174
0.506571284438079,-2.989585950236457,0.6132969536430055
-0.17382726304255525,-0.05779684148465398,82.39469480433803
-3.139768272975405,-0.4523950948255461,107.59592643061194
1.8969082208524093,3.8500705249300324,109.92129364009713
11.572283319727159,2.1950677932813174,98.27409697984879
8.216379370682391,1.3076421445365076,111.14753049609185
5.150045886710665,0.5114325433505724,51.495098735219315
-3.0320873429375785,4.606943400378209,85.39471552910653
-0.07468957624404758,0.02189199889180945,28.255892429822804
4.70298187768719,-15.893810625291264,18.367719636168587
3.0548687258729323,7.244150335014549,122.4114096864345
1.9712998318697774,-10.236375469485871,18.536498987047835
6.210346302989598,6.367029773765397,177.7699437316097
-8.334298491619899,-9.921462327488467,20.83697394429165
-5.689199069437827,-5.074344946076268,94.66959085090183
17.239010769364153,-1.0078876481106924,84.51600105274562
-10.305197214730397,1.1636284660656568,50.57980138867366
-3.6059652655149947,15.047774139737191,4.181589495320148
-8.528272577982294,13.649778018019749,118.00953040775819
7.735255404026069,7.425350586621834,95.09375626705211
16.207762377973296,-8.502507471296953,86.81139600727083
0.7764792455105594,0.5275019822979136,14.803463275054085
-16.454676622548572,3.7204325318307347,2.7080059727877526
-2.263694107624363,-1.989615768481885,183.04815220657298
-5.629878995074402,-3.2344541681909122,172.00601468744395
6.509361645665687,-14.85751382266662,191.2447162174183
8.226084300521162,-4.516727458124205,108.6211992695586
1.9794171915091434,-1.1580671345368296,107.05499417565719
1.0748811984927555,-4.869459832594044,173.4584320292115
-1.2372110788627204,17.80724277828329,8.63508767467318
0.04238738508912602,0.051550413154584473,183.87262976314705
-0.13724087729164317,0.22333257745899796,31.761639913175244
-2.1938282205289945,0.11881485845108096,117.66251427425169
6.865329534558602,5.380401607091109,32.716047052522
1.1144251252004482,-2.5977059975669694,24.008517083151325
-5.3078683191211775,1.9990407010996645,47.61627000410462
4.45276172775071,-12.855273968109877,195.92127798368176
8.696096858796814,2.221897368284505,91.78679781781705
-0.5220131819828724,-7.612027491266359,96.90222793011873
-11.569236593481065,14.386367299904334,130.5373839927676
3.8575084339795898,14.619529709308802,33.00122083736288
0.4280711295995934,0.18540113526005272,110.80979160915882
-2.9540382742035796,18.211395902824165,86.78103480364278
1.107316014409817,-18.303222391965996,181.36980477297197
-1.6720977065703688,6.894404500146139,18.382480237438912
7.29863002988803,5.803284592271328,115.54236186515074
-4.686890853583333,-3.3776983785993253,154.29188758552607
-8.127474280843016,11.205946340862539,7.167707117972166
-1.372739300363118,19.094302911649663,25.15251134990124
-1.9918156211514284,0.4347878393508183,18.222162485459204
0.21778088988755714,0.21515196247412707,44.71423614635373
-0.02512790130435063,-0.011162706942113075,193.45680791679806
-4.2372054037771525,5.154683711586921,111.34699321943961
-2.35668733769673,-8.808857670653957,128.05177747687043
6.6858011223935385,0.5792094349366964,180.02169318199003
-3.5860238153853667,-2.010746014864397,153.52023125176166
2.006807981349995,1.373366494521233,171.17339618491897
-4.647131483201615,-13.093454515615429,160.6838367113419
3.9919713221507984,2.191958093214985,40.95671785313486
7.03466481270792,-2.2718102003769185,67.58466400346346
-7.142108045918553,17.76625638650847,121.61530662798103
-6.871493014529819,3.2241327312513057,91.11432179328982
7.232949227430189,-1.1983894830026482,175.8692330781239
10.556186893322067,-1.603744998843413,28.891681047176366
12.297169999692121,-14.854415135877076,83.56161825061153
-0.011822184964591394,0.3707742838013871,112.23313101681815
2.917897957772953,17.928682809494056,191.39093772701955
-10.141118316281627,-8.854760543264462,124.05883565715735
2.5657660588445856,-2.6531963393985794,99.94817238553435
-19.25244305553269,-1.0164500599449864,59.6618365813812
6.579949743144166,8.47182086875202,106.45931586097224
4.283093029948291,-16.98027434695436,187.8094008309285
-0.9306002407165372,1.9052120764208555,91.50654721581269
10.133374825498166,-8.984143140353734,16.651816012903886
19.444021316178265,4.669560580614628,169.13972405789733
9.105819364671195,-5.810529535025254,17.416404338966117
-14.980384728507973,2.790488423209899,138.08196415830605
3.3298648731998153,-4.113149644580652,151.02534861833752
-1.0838315862571983,1.8557237871339693,33.882370503389936
12.96159004126602,-5.369233240935367,110.12291526840269
-4.220845913145274,-14.86948830574078,13.643660860981278
-5.571307516300806,5.580127419636202,114.96333280928151
5.711274890570826,-12.132315273825268,169.22120553915082
-6.947667565460365,2.7599606161167776,101.96764626641209
0.31823433348970326,5.836079830564102,166.17637649480855
1.8240398398534794,-16.78180009972802,66.58968912078076
-5.6495877937225085,8.130677196061669,96.48664991736342
-0.4571205509089399,19.675963792271812,69.03466772611719
-10.299781241651727,1.7004474652399832,165.8550741436692
-1.3808487070135627,3.6527792175829643,36.20435705232779
4.189606322255164,8.067942041319279,77.59609601644823
-6.748025172039837,-16.94186119221217,49.17492810399193
-2.1269278087960126,9.677329961805196,58.98405474988595
1.0778704770293095,-2.2106759785149004,85.535925796896
3.8223927477304604,-5.589659152090759,126.38091465622023
7.992568470748342,-15.063523128104501,31.52044776736829
-12.047153541316483,-2.0673713237299896,57.9541574672167
6.420518220113666,14.812744259940713,105.35083026334217
-7.571618510913606,1.603504348621034,16.060714724636483
-0.16827630607890573,-0.24848315073515478,182.63948811390262
-9.835823299846533,-12.324470754257296,5.992060565683688
7.001884373049667,11.326667033284641,60.159569011495776
2.6899192188662817,0.5688660580478975,15.130835300210421
-0.013790533006663695,0.012670726563544,22.34656499697789
-0.37391739641721916,-4.498774676506794,114.80622117547168
-4.9217925941912695,6.569165342359609,54.556450565147415
-10.280973988971372,3.9075439552569686,164.31517048107779
13.044643987776197,12.367735651776618,131.75969114988405
2.3185111515593406,-0.5822484480854422,102.73714907758887
0.47569011515852627,-0.9522172710696822,39.6127380825386
19.66374108276277,3.1730265839397114,20.087768235655233
1.3849629235356298,14.435661691122776,50.04809393402119
5.794709886357444,8.906058152115984,27.638784605654788
7.709030595542972,5.411514621208226,185.077149474475
4.649143988559056,11.393741928267788,16.252462946902835
14.462120669065657,-6.811602284099843,149.8441749654081
6.550781830583891,-2.4525057690079803,70.25008879519856
-1.9993028384178373,-1.0383788699990328,69.93751786527058
-3.9597454306986175,-9.595883419638605,52.73079710464641
-11.048133883577089,-7.379033348768274,0.9973519233882566
8.900659936239359,-2.967508716735222,105.65241381810169
3.4639374854038416,3.1251718929062315,2.1591266199539882
-5.024988936893293,-1.3032629863894307,61.61563957489784
-14.192745956418968,7.311169828441824,151.5290783563066
-8.506289100774001,-5.108528065205882,79.61237063112463
11.613111981540133,3.4762987810770816,27.72237669304143
-0.8200311997662575,12.150050671262743,116.79908413890001
0.24899682389208813,0.9919042667883924,104.05300639293253
11.273123353406639,11.71244737152797,116.77268699944545
-8.424906497812179,11.430708682355709,44.39378845956825
6.106124324506069,2.233420136030494,174.6183350965585
-6.099477180182281,-14.502764072570551,122.50253391747397
17.049857252468943,8.748304063358907,23.971457028270194
-1.3488793427734314,3.625070804419808,163.05589124949066
-1.8524344397737635,-2.523769198620231,19.2372280786522
1.2216248646474783,4.895581442205164,46.79551911441535
1.29769835919986,-7.833128242966632,168.9366644488432
-16.895848438155813,8.776289509199733,34.651677435276575
-5.050793761085283,4.688068171575227,17.618923357571603
-6.329243076906351,11.259934002847453,99.2059588193133
5.971494722574761,13.224486614410832,46.812202351179685
0.018846270379183058,0.42704133605354083,90.28610848721111
-2.708498352739036,-7.5352293475157,18.60254011843456
13.818964486346792,-4.586723469764599,146.29823536140725
7.485235943534504,7.180820377231031,100.56545720636596
15.77279853891943,-6.482159261067498,65.83238371075655
2.511643499565302,-19.30707096581814,135.4299078867081
-17.936793729949883,-6.427285214772878,27.475694876527946
3.6779989023512396,-6.294576903360184,166.25044880862492
17.291173215105324,-6.403723828451285,102.56532891306229
4.323901153874898,8.186234599017743,180.26134478699356
4.921868519821713,-7.845213361829329,146.71445831258484
0.04832428422461394,-0.06853907950349068,20.32565738529486
-1.3125147182507138,-5.627838399898078,68.12771570727323
10.31131965405634,-5.464157527272319,125.68189831095242
0.04452814230659932,1.4859087770669388,104.72392772973964
-3.5460466407458875,-7.710982375706768,119.92698858612157
2.668679745121963,-1.2876211086034781,179.2440420564691
-6.351199936867794,3.2007481627107777,103.66896958478048
-0.09405102469796613,-0.09652544018748617,159.8981490784585
-0.1273132591122387,-0.19382487285485878,149.3092936122291
-13.509361017372575,9.940986510489873,171.00182603978683
14.526438086945959,6.6274640965381275,93.46169379596287
-11.528077135339842,-7.075767573774953,175.2557050671688
5.532096085859003,9.299048211466385,137.2723752905371
-5.305430758186273,-11.155850866344972,126.72680329142455
8.466344399163805,0.44765752685350535,188.26331539246382
15.425805016964247,-3.452145243690514,104.33196582017162
2.793454060323811,1.0813913010010736,94.80703987259238
-2.507130567675144,1.454353282779906,39.00334759001407
-1.75048105344893,3.114835923371967,71.87898884212981
-9.780822316359382,-8.592362549207698,25.11186190230177
6.227954146937618,5.478257077226268,133.16468152143617
2.9650501903164024,5.80582925050265,116.10043972307358
-4.297656033590385,9.144124023938893,173.5764968263152
-11.877510108408282,1.7768032322335408,65.44520329299716
5.007654066431059,-7.155013413400559,132.49218705988142
11.773764040051738,-0.19710552011768848,126.47194232751072
0.8049763761431332,11.048662236321865,194.80323041631195
4.100394906725037,2.135457669093657,111.09821506735582
-17.138565821614172,6.005758946758989,181.30136964254567
0.913290592616096,5.419804237045727,15.380127357303452
-0.0630734868608111,-0.3414747711000146,156.40402413587867
-19.381724109184795,4.85287521325548,151.1544475533528
18.959293427312545,-0.8781525991637129,46.75709960883432
14.907414089482282,2.7996752778853633,88.1592485370945
5.810840326042505,15.672226306166007,100.58661933612971
9.849349801663799,-1.990424011508756,161.21534627858983
-19.533168348660848,2.5533625345635493,41.41346991074657
-5.576268736081804,2.1609899332982523,54.12145937084776
-5.312179809687137,2.5331677566883353,82.40058689362893
-2.0124302180869855,0.6102148304291709,127.8402091140917
2.2869014621570445,-3.7101047108577307,179.91300778017205
5.907707921279979,-4.962079648931452,31.316765324674112
4.4890758453092925,-1.7836354109309491,189.59663232394288
8.525169676678251,8.652619156731038,161.08730845558264
0.21625099087237604,0.7911033788108298,58.85259226058941
12.098668138956603,8.008132437523285,184.87260100567414
-19.11623821677839,-0.4499070044323707,66.73851543720531
-8.586352511301362,4.80874009683314,182.64738104124393
-11.202519908699843,7.595819921676019,10.117115879254568
-2.743647332538195,0.14711592068952906,111.42259659914049
-5.973452342310293,-1.7065050233018362,1.6711253559820172
0.4902917077189399,1.9346582969501516,132.76320073676976
13.484037666339006,-7.11656642626144,43.169755342633806
-10.648147029332709,-1.5411768802937196,26.55968463058389
8.416891227825323,-10.196127927034235,16.338308778397636
-7.568221525351536,-6.642810095248582,112.3275231417883
12.489217990537195,-11.256583492491588,98.6660180662823
2.6291710862713527,15.299081245154296,175.08088383712789
0.9738754814919327,-12.040399753353125,39.86480075102685
-6.748336426100587,2.363565488470287,110.76106904872603
11.049589492979328,-15.552199471076356,48.57324697501455
-7.618190380796155,11.011747723938893,161.56814544779516
6.143074398950478,17.298656954819588,108.18530377398163
-0.6167227384726508,-1.4008078145831728,14.173801108303863
6.8929263867234765,-14.819767269678492,144.4833637484906
-11.599385215586228,11.891641077740921,78.34305834301341
-9.6475903423257,-1.4014551877240897,18.558323622755623
-3.8532399755349767,0.657269124359485,75.2312993587292
-0.2979693053215543,0.3040893727513086,63.004682877666966
-0.4577943958470747,-14.365000023390559,166.90249130255208
0.44561833266822937,-7.97883408749951,165.1092087581225
0.9479413026227407,-0.18362673782125472,9.542425211425943
4.79312192931094,-14.094402909374297,126.54526654142097
-1.4199492313349813,2.831629171872815,51.75213159249385
-0.6406933923358499,-14.06682596886068,24.12775471108852
8.042004743941218,7.726779621902681,115.37591727322469
-7.728910306336805,-10.038302252040536,118.10733319939398
7.942725863809596,16.9589960865422,55.78016138220543
-13.00862784783889,-11.541517522390514,123.00650224895972
0.044199269534453786,-0.2600393248240008,127.84353745808956
3.03958854635398,-3.415058622042649,153.53603499803512
-4.624433729824479,-13.704648508571738,61.339233123907036
16.860613697131225,-6.290507299690846,175.2716480577053
15.394675851817551,0.1429597316943383,40.902282549352286
-14.157937398648235,-1.9887706923220076,81.88382309000595
10.397016549767237,8.025801070652399,189.84155959547928
8.921056554427729,-6.421683233786649,56.40152956323381
-3.276443834709485,-0.1685557115440383,120.51065797951112
0.13627596325717523,8.996281983181891,0.7595508161562181
11.836817656031196,-12.319452865898942,122.3729717958613
-1.668521707870385,-0.7355522482881638,142.85371608533714
-6.450135057558189,-16.57395310456541,80.00854024048778
14.554782963610487,-8.459282195270877,140.82403563533174
0.7040333227767445,-1.0501427873947367,56.58072822540774
-1.2823149509711207,-13.370826985037874,19.81722816587441
4.3180729006572935,-1.3521139362847256,77.41936163118359
-12.14109162704982,2.667883007300661,175.6171511547505
-7.882784982494416,1.2363817782556659,98.36914146102396
13.027706988949616,10.059851808752919,7.0623861688171585
10.26101614029932,3.8708226022552887,52.46619199938354
9.225586102331787,-13.112744749824387,109.27920809512044
6.093626283458995,-1.8507064482445263,176.48622451285902
8.738373163006726,6.4597019082928675,189.17798605990464
-8.686168477677244,10.64735657823983,145.86167743246224
9.144964112623681,11.168992818478246,120.10995400612714
-1.184335890444986,-6.96927504195709,80.18745144141268
-1.081189466988328,0.12540483031048408,62.6597978919861
1.045269695470981,-1.2118693110580516,21.06921243369133
6.113146151112958,-12.238190244007251,102.81080294781428
-1.1080757108128227,-1.7750382661504638,33.57729005434582
-7.422744414015469,13.543667039919953,37.75255336492902
0.17401664975377917,-12.975174496484144,178.154914240087
1.564337106900051,-9.908514208447082,53.85724734604036
0.3021442888017568,-9.229778835419298,55.86436424732795
8.181228087802086,3.6266143456779356,76.25734252748447
-7.4538727451870725,7.470533261393952,184.40363985462415
-14.384733894730367,12.22630561543817,25.82372803258377
-15.521216639915103,-10.822901757533938,116.28146881916899
4.785013785711674,8.381423648350225,135.69375402156052
-6.286880722673867,-1.5339587737277092,73.22295950544063
-14.187685382974152,3.553206471984273,139.0580149121299
5.619191300983408,-4.292412379704932,158.37461718600358
-0.87612328515344,-0.5968654361740096,173.87560772194962
4.472684428323683,11.07973231250445,141.52176340243318
0.4332194648678336,0.8504130160746805,127.2016131437441
-13.399035135020336,-8.417081935843994,127.1264528428363
10.441713841553382,15.238250520443039,12.166505243081849
0.010356021011108026,-9.936798458700386,6.541243393006346
16.879774235625487,-9.584384027240459,194.02634630668246
-5.6322524256241016,10.493488022926398,88.55765103330933
12.254277816658059,13.587238098473279,55.350557456572666
-2.959446634742484,-10.667583776356555,169.73577607633138
-9.461041910845024,0.14410225284378408,155.40988523099705
-4.142727895385438,2.8485711311964175,111.39363174319448
-2.7947306729213155,-2.2207085587100455,156.89754636760952
0.6838223700248186,-7.970762740999279,87.05800406912407
5.996659693169234,-8.271695079105978,18.2133353255892
1.7242003365379754,1.8245088775072371,104.46638696504652
14.918162401758003,9.592397168143359,103.8978531410669
6.757779131283895,5.13467685585122,81.67324416735447
-7.733765246936102,16.830729421740628,32.83784519336685
1.7437496438307496,-7.034850750904542,77.36046141131096
5.355017362853298,2.216043933247944,20.681939634870616
-6.032465595076989,-2.5039141167991965,75.19463042558374
-0.008277242236084045,-0.015025981634232126,188.64473520805873
-1.1088065722856704,-4.687799916072425,58.80684693182992
7.422374079717106,0.15087858563042097,21.109371578475788
14.572908418726831,8.190894435368717,172.92002456426707
-1.2909618940579726,-6.253400359876006,125.30716082184136
2.8830951400307954,19.202506119682063,18.060639639326602
-11.567954098258777,-12.50109372027118,96.86107126336445
0.06389816110958181,7.089065924376243,175.77997337211372
1.8609417120432223,5.567862166710274,122.22116493477932
0.3180256180092514,-1.3924128434864507,33.224831342550566
1.6178725803674918,-9.110411499371578,57.120883872697135
0.7098141937018284,-0.43119268552725165,110.25269515851532
-7.790624919253149,18.144945558139366,70.5024819122287
1.5470506270814053,8.511153157862754,170.36691429572787
1.3694412186543685,7.111888597307416,46.649111773517625
-10.608131012391592,-3.451057915217599,58.04844456808495
0.3196476086630294,-4.552959867423099,172.2339305710448
11.257345222576088,1.6903662264707315,147.06806356681875
10.245170077831432,-11.790039359915887,45.17853344888771
-6.512388305144484,6.4829677593037545,76.93538368616582
7.208647058964619,1.094162393711006,184.51375105582798
16.258397781890686,1.692826278976607,154.8930653570261
-14.15619584412782,2.088860737431949,190.95445818640744
-3.037038083952762,-1.0791515191833276,144.5313930067542
5.194628350445209,-3.0592799169324154,80.72742120557916
-11.998952222908457,12.386244073786571,165.5502972902426
-3.0229325585838236,-4.188263542827646,30.448050526069494
-4.136356419829704,-11.034046387695925,1.256340119096655
-1.0830710044134157,-2.122634321236042,45.448358354656726
-8.133837096213115,-6.2908014905430845,3.781004611620098
-13.452911762673017,10.99604556691629,126.82313311682213
4.2764549707877215,-18.116882446370408,187.66784241189472
-5.155604443466635,10.502926577753994,188.5088823314749
-11.790301248914481,1.047520650260409,92.42503724057252
-3.730821479116971,15.549190377506074,69.04826233573043
16.7619231602672,10.82594867075881,98.23881572588134
-12.143728548014439,13.222423854997208,41.09727827197798
6.300489283456261,-1.7291315621714671,50.358574745112314
8.08770139331747,12.048559392540646,174.19366035324688
18.55893719789463,3.7965642018550425,29.63063830349897
12.541889843679579,-10.011181258573226,56.06920865085372
-2.6412211334238527,-2.0833853579657498,121.19710710000871
-6.076328089406047,2.019220330694634,65.66424170843372
-3.4602571798196045,14.514163444382087,148.15130362270884
-14.859723060270449,-4.180038356233516,93.55042129217917
-11.48632085275978,13.189316054581475,117.62500369041437
2.7584182242822854,-4.423457354596787,153.8232757858738
14.461673386236715,0.687147656953608,36.56512946895829
0.490742053465952,-3.8002460992632603,160.6431470306954
-5.446254424867641,-14.629914453010292,133.71198556641687
13.71667634175091,-9.118019489314744,139.6064423359879
-3.4762689449408,1.001780907925539,84.10732380282855
7.655369759109161,-9.009339950405415,166.0482360800161
-0.5032205977473239,-16.279417232931124,127.77928721301133
1.9778010580309324,-0.9401042144366075,68.95426718711613
-11.3698024680288,-2.3492111172330916,48.31237606358783
-16.190258741907726,11.688675208577536,21.099819241345365
-16.107026095927914,-5.09304257968741,22.998355990636533
0.014406432298043607,1.8530836207559762,67.15716241360434
-3.004823710805347,6.505842193920219,75.29068696526654
-5.465958362350128,-4.556178726277765,138.67463274588886
-1.917896124408015,4.995822905516521,38.98699097917553
13.830522467595156,-11.624690191323227,9.677939227528643
-0.015140398075137215,0.11223866420270985,154.1288634330138
8.568395958506983,-1.1508407016516087,187.0980672595018
-11.891832733144552,8.326262982375058,199.31504080937657
-1.098374482152911,1.0341855296060332,143.44671366538154
11.8784905653101,-2.802325803864561,3.7428675603097483
-10.773514172341512,-2.14588925082985,41.48300641303781
10.148665822223613,-6.011653780966826,87.7019646176185
18.107944661901314,7.68985427929208,97.03517684860037
-0.006772832394860752,0.07856035399796538,88.17950547724205
4.3529839344445325,1.1323448837434937,190.53745899342084
-5.1505245632207926,-7.192967973384115,119.95424392811191
3.2969910207015096,-0.6699941449129466,89.98832721505498
17.10598254593574,-3.2512584842876566,68.8239674985264
0.5886413956638248,0.790947862199003,112.39412579114077
5.5753784391399295,3.780846682077453,4.077506500915318
-2.1119316529779444,-2.0083382462762494,52.02810950136714
-17.633152614835332,-1.2897274218569739,22.796806379492395
8.338882026446068,-16.3480202205604,153.43677548698304
-11.006937633087922,8.529073445297136,196.87243748831656
-16.883932986903435,10.46077296389351,70.22784608363159
8.033778271466648,4.092602602844538,140.14806301736698
8.113508840377856,-0.4763365904941019,195.10642747758726
8.175657995920291,15.635981535904742,49.83824837673729
2.8532823769590703,4.448429844559067,119.82925815797675
7.766980178241247,10.604476154273806,157.63819086245093
-7.198828861501606,-13.155154034668534,90.44226933321022
0.30839286613664146,8.278144938891467,38.88253346777786
5.699895303762124,-0.2213576030034192,176.6095148605762
11.087748775239756,15.107460873336358,22.779625382438653
-4.366459211151271,-7.589265439558464,175.8585308924252
-14.118978672768424,-0.6631247066911019,36.265453502355484
6.426320908633586,4.7749796804583005,4.135993739857136
-2.859174264570843,8.6385558452499,155.01456843213884
6.005823500188325,9.639330234917615,155.77715704827295
1.7967666276853078,2.444155426234132,147.8927120024067
-10.694993584784047,-9.214257584031039,168.8734162747802
8.221149722111415,7.0053770828808855,43.326468649744676
6.288791622710524,7.436706931763149,39.56137798472801
1.3531705807006182,-10.801410475541203,70.35908107950894
-6.420935627878869,4.8878474720353635,14.40115818025578
10.320453083699626,-12.135897805194103,156.91379681932025
9.758488514820058,-12.240952955452386,145.85401498692067
-0.6211772610780792,4.622611874378477,179.0160446395545
-10.893758701378696,2.659550727494418,85.11997827523636
-0.685910010399759,-2.3739958552838862,129.4773294431553
9.917160595927939,-9.988968171259184,11.42686870920393
12.165349641513268,2.191228790329617,73.34310521993753
-0.2888744879955476,8.716639213316538,40.92859547499761
-0.8645677627353922,-5.0026155111928885,188.00232718804935
0.04730430856004068,0.3580472004540147,41.64728351988951
-3.0682719530359908,4.394688867817297,119.02663971143626
-9.472840159989195,-2.8195640822161767,95.21961484446226
-3.125181350734947,2.6406191211022105,5.337971770286387
12.297774832101515,2.7603759394455407,10.24337839383762
-2.4658789296723014,-2.3861595074499844,129.02457131243287
-2.002689031228085,4.8650587406440335,64.63258704965405
-8.646701932313452,-8.373077311251404,144.68003280165212
-10.631404903726338,-15.87188410740004,3.3051969410192283
-12.687565652823302,1.3349712273448249,144.2794290992255
-9.358640345719149,7.422733813123698,75.2617870351941
-9.410071888173833,7.3472166795481355,124.40455991595218
2.5642829277377563,11.148903347034652,70.38036402641418
13.259394282270089,12.125047886864799,172.88605765430395
2.340164412256196,-2.0613578928398875,128.9942769125863
-3.0547731108315186,0.4074290686073612,67.51451083168433
9.030715601611039,2.663514617897584,169.1277769485435
-4.987602697178045,-0.1712631595374236,68.99248740647495
-8.647459280003902,-13.889867769517169,13.683800892757226
-8.99931365778377,-17.0080268608022,118.81556752441382
0.3483699192378867,1.63399382739075,79.85643735997745
-12.41154023837692,8.540740800167102,92.90819365236658
-10.271023368038971,-15.31307306093025,182.61492109735875
5.818695713161676,0.23874756668415129,89.24190339547624
3.249979954431657,-4.491131208592039,9.479112084155883
7.355934286162474,0.8513095120005247,152.84188822578244
0.2752329117059734,-18.047625844856196,179.9302150834999
-16.765446940154963,-3.0287884349378236,142.6434833526269
-5.6439564490516405,6.780978974149561,35.774986685441476
2.072434605566675,3.6953682352369035,139.61777917193623
9.244994452687942,13.669758049776227,61.49876712239719
2.556665002072124,18.091599058224144,33.51640593503311
-5.465787499705953,9.673572258486626,105.20701741074
2.768537890030316,11.443327104753543,122.24233150557123
0.11260462311074415,2.73174873725715,24.002843162925778
0.7412616246655953,-2.50668833806713,117.83226398874633
-5.92835638949988,19.052832718645465,172.10668787334492
9.355793513234914,-8.655331775122233,102.28878299859126
2.8822346468748443,8.117590609868323,45.4972622915581
7.815866881840471,-7.744755577482386,30.209534045426658
0.4158727601715859,-4.554550900265413,80.19132634183772
5.7334647548695825,4.049737505926221,161.25876439573847
-1.561784831092397,-4.805496954890344,82.95106819105646
-13.600855668212072,12.414040842139316,9.80294212398125
-5.007998089519916,-0.45814850620446973,74.57705559097214
11.595930504419261,9.967152726410623,106.78389947175233
-2.4440506229606798,0.03869886402141353,58.68860278745982
-0.8693677329950557,15.873709147175395,169.70601319965013
-14.422483167596972,3.1891448947800636,74.53634179039952
-18.262822135335096,5.242363520515737,35.96779984223297
-2.6194222125089475,0.7212087932809725,42.790910402909454
10.178713883050268,-2.558445208380574,50.52181751943294
-9.256083786597888,4.352468640885171,165.80503802701202
0.8874536870547887,0.04096334658703821,81.75495799703995
-1.2914772667998244,3.6710377399210654,96.88780122787526
-14.52852989157569,-4.176434366846875,182.86030870091366
-0.8982505891945018,-12.293714803302418,153.36048856802879
0.22983629566744765,-0.9263982966038885,111.95273654075515
15.293668893806112,4.2236538067930764,194.8719605357162
-4.258882517887856,-1.3625131287935413,37.970265439839345
-6.447264946006222,-17.01602833186811,144.96055718635208
4.66517618376556,11.8589490341741,159.26125756832042
3.150254305562872,-2.79435660826808,54.57629152712031
2.3644957253537964,5.699917239094178,32.229742056567545
-5.361281335505827,2.936676211487433,83.27289239314011
0.056053025723617395,15.842977333478373,193.1458018049945
-7.283684135504907,8.129098058881118,133.6139999494505
-13.0437761839803,11.179390811424593,97.40065580234042
-15.941005372664133,-7.566970065928863,67.62490793008374
-19.61089076826006,3.4954974811695205,97.62682747596989
-3.8469759635163574,11.42653976331976,99.96768981753463
4.9024229096196965,5.945301734257734,98.53901552704987
-17.197347787565178,-6.961951471228104,140.74108594639526
1.6163368979992219,6.353280195829203,119.4720912522067
4.4129491628249005,-13.287325854086816,78.5909638640179
-6.569913901396593,-0.5398939358201377,99.76771385662404
-9.721638676786748,-10.092331015277137,39.49925606924183
16.97964602152101,-10.554149547220772,134.75629255095714
-7.729573170771764,-16.49592640226032,57.8724571940884
1.427950717778889,-1.52592325107358,49.46117391413705
-13.819685201683393,0.8729982615344652,62.957807051373635
5.188385916544025,16.908138495723428,156.27556186873264
7.710305515815315,-9.111989317327197,121.41185878207193
-16.65293423346901,2.1513224459447966,136.11695219613824
-0.1278366923218426,-7.377093310592687,71.45309132787021
1.3256520991707033,0.4196467914077343,25.014303637166325
-17.67068319682978,1.9163955738041734,45.82863286139123
-3.3289261151397724,-9.881938822716066,79.00385907859429
2.4207379780484213,-2.483257478408055,12.201888269933736
3.9196663320050753,0.7611819726895522,10.61481903990693
-9.754736887693577,5.863633055665756,51.56905625062211
-2.2536885372143614,-13.79090752248786,76.20731898324746
19.853509065251117,2.230177000618246,135.87242570035946
-16.355187483811164,7.799688381887239,99.6540837902755
0.30711181874271815,1.0365628197918333,92.37523689484574
-2.780434196845776,-15.705013818014583,140.5326055250495
-0.9830789071963779,-19.62992493110754,128.32022660974954
-11.397604001278495,-1.4046985375000434,125.02405443539585
-10.558178588422221,-0.6460092399468779,90.5634079161803
-8.452625698415254,-16.510981335386866,192.54036181681343
-16.261182769873123,3.5272028756884843,77.97172305758102
-19.095601795272053,1.0655618960748976,109.68544139289651
-1.4564637293092155,-5.782450320332583,27.911259214705588
10.4064483254548,5.8619113400309555,65.09913496617254
10.387784501947,1.5037867656047164,198.10812054871704
-4.8334799362292875,5.69371783045535,2.8696090955529607
11.104882509733775,10.793146913896098,20.959860493871506
1.2753955337479612,-0.3166979132653281,110.63995953583972
14.275095038613264,8.872498708601118,183.3179106099775
-2.672082348559751,7.669667772691811,41.59763554252856
0.34729647961995486,12.227010525913064,194.5490183967714
9.827131976181589,5.679854730510916,96.43412289078626
-3.584697249596043,2.1913427678477975,128.99437447671284
-13.692195589594984,-12.52194061957911,88.65158754733666
1.1653671212775059,7.024098190582839,6.966573898253614
10.69452325231351,13.844270950102295,194.63363499125396
-9.237538177368155,-3.1097453353214055,119.36038764347165
4.039071140988184,-1.48113231502141,10.866648957082404
-1.2276441857451956,-0.7653146354932883,80.44230313217193
-5.691884856771457,4.551748762606308,98.02276024295828
-1.9254109069191803,6.0579621068222185,48.85764181672134
0.00512980062919984,0.038701316573361885,40.348484830852
1.1245479768678597,4.182250904893732,13.538796582853884
1.5594692343307388,-1.795474803681867,107.81192237436544
-3.0328758858062073,-4.364744975888987,130.90781516783733
0.0921480739052396,-7.7043407553519065,161.57742239389339
5.098343189018334,13.875548575149933,94.41542588949059
-1.436674249027737,6.789689685213679,176.84258338800024
0.18990940164027606,0.6038875952889534,34.32106677538429
-9.206459578077629,7.084004330950102,195.49821629360116
13.00249449715052,-3.155683339056803,111.25027134948834
-11.629280380201019,6.4704400042938355,192.31711787550583
-1.8809542187239279,-8.140422925125723,190.49003839332988
-1.2147408987032913,7.235613952016652,149.3611859136281
11.885972878914286,-7.070501165270803,196.4234985146586
17.53487002417269,-4.66284301092281,6.897008658153836
-2.7177137197095846,-11.84134977880659,38.296202083118544
4.848310097278657,1.4065707510434127,128.73892291561359
-12.037654863179766,-3.9013947928413244,152.6928324043639
13.836819112600427,2.2484851083494233,87.14392756763232
-16.276425897478088,0.07482030998006257,24.186149802885136
2.3960908310143596,-3.587630351166816,16.483217659466188
-6.890014553736219,-12.209750727583831,161.35804992739665
0.36119082875064373,2.1955629439639606,42.02685686049974
-18.213817466010962,-6.048668160584511,9.169191640383168
-1.3206496506035648,-2.2873355707335916,192.34312836429822
9.424861956261678,-12.00242779558663,51.01630298159563
-6.490337679148029,-5.191878489416822,185.75066255888046
-2.7123648912448086,-19.761598666292432,165.4056852274848
8.167504385707272,10.823535558752448,30.1551040974962
3.8705395354385814,-1.144656283928089,183.56909475438937
-9.049124206032083,-15.426617697414132,68.81333451921601
9.251031564076216,-14.868725519919304,111.18902440512228
7.634246889328348,-10.582865967316327,153.85928135247886
-4.66627761625023,15.61007080505653,139.84434913022673
15.725592454935223,1.4386757139372228,7.635852907496221
2.1738106005784807,-0.1455758795975526,161.9479795836227
5.536455942313701,-3.9891266743825144,15.444462227108446
4.4637799713716,2.2868068448053025,27.93871369646974
-5.1882856094110865,1.1665739468785228,130.6240967468635
-11.570828417969997,7.563283370836311,103.90109171148576
16.252221758295995,-3.938867678251462,44.81681321686006
-1.3907583289287115,-17.267524181072623,36.551117593609916
-9.381138131697018,5.522430494491131,139.9523116851801
-9.403145839327733,-9.83320740193347,132.61859000212513
0.2999074897038386,16.180365689265336,106.01053762382409
9.231350886128377,2.1172572808777574,152.9621443731773
-2.7072698923877816,-2.6398539952821287,195.5429820333806
2.3942728347966784,1.1964255558754928,141.12673825240606
-1.7010460075834872,-1.5579543877925914,20.019346763696966
10.910886415117293,8.13234435162003,39.45231553540032
-0.0475450724151779,-4.924228538522022,181.0602301198982
7.646596428779528,10.911156154773652,150.04560340651236
4.614868171713084,13.770644849165922,175.43253619823443
-7.582032593318029,1.9090756567064628,169.03316656638515
3.015665743307796,-7.290524047330495,27.904142527619502
-8.695835228678611,-3.0324051367223785,5.001364082898818
-1.406642571226534,-10.079317835803229,130.69366379648358
-11.599900520368017,-3.649881541355875,64.32486270027506
0.010532049738098853,-6.261437321018536,166.64871164179962
-8.569522113220689,14.983303182979949,141.83117315281055
-0.11564121256877957,-9.607210826973224,141.01721729438532
-0.6655831420325059,0.8657020248748937,18.286521507401776
-15.886852005499222,0.13119708683281897,90.34616299914839
3.785833836515202,-7.3501877844689405,97.93451711843302
12.122099931541252,14.66895761532991,49.04038281034686
-1.9090669751433977,-18.888366756833037,145.41375301614895
-14.327507337129678,12.66428148899031,19.42370142488652
0.04006033889655872,-0.42796279300366,104.8875641270252
-2.7039919142834252,2.2267016994385127,61.45647499042273
8.594439549236387,-4.25122599909175,71.13457645241871
0.5611924343752172,1.8535593792937355,111.79524817149561
-11.869284217885978,12.142420049907319,154.5299184901584
1.513432452973891,-3.7430973298838173,68.37414156180542
2.002962178679553,14.668489439538085,1.9521314910404541
-15.083888436202916,-4.895375903069665,176.80104939108878
13.178836238538986,14.827994591961007,44.864681188054625
4.9397988712967535,8.083835770171849,193.55448527508463
4.320702774812837,-17.459082632500433,62.45485637092207
-5.37856085767861,13.676025484575401,146.7988420337002
-11.791056163252875,-6.021313635256922,8.678288988094462
3.8316211583432627,-10.14877461482582,179.61525642697396
10.474289124640386,0.30191158892647457,31.749325505537463
-6.8860548321534285,-10.197775097340102,139.77617333419968
3.2774489713059007,1.3608133624136929,58.64606668165111
-7.279107765102826,-8.490434496756665,94.04587490927602
0.6580773620469951,1.307943883482792,88.5180969620571
-4.974230268791121,7.860705825780134,58.41645276573939
1.084332834982031,-2.9888117746525156,11.729173597405662
1.7369064164268089,-5.223026554673347,12.344616658764384
-11.065120240491678,-9.568371279036558,196.29852367921603
-9.878071781010156,-3.6337229023060846,162.32050581409362
4.508702041318946,-0.933848645307588,146.09956666841492
3.4625996290370864,12.645445209688232,96.57756066904561
-0.6608947626645629,0.40418876464219017,118.20453992355044
19.329195821609858,1.5631985727966164,83.77094733244199
-18.163213976469677,6.01573850873963,34.62993040625308
6.592640164610438,-0.8693494163792367,119.89067231875366
-0.98695165945034,-1.9050787281545145,115.04537317815064
-2.988482766614843,3.43440786773366,121.43467063725781
1.7207126143529894,0.5047399121483804,41.42805385220687
-2.4869223824247806,12.4669690308809,192.52330299218093
-6.896944829615984,-18.071896028953777,50.41231265549773
-19.102689721795862,1.1083870921233707,98.13815141301568
3.663725559068505,7.153821137767291,169.38436482311903
-0.6639049203864981,0.647573769984449,185.6001983186265
-7.549166499611862,-11.71356951213161,46.834306932825776
2.426999922020142,7.943481004122773,72.50095706696045
-3.735389038152564,-0.635625767457368,167.28625057603398
-14.078501456677932,3.2683900112756383,38.034430430657864
-1.9017950019457017,-4.232311191035026,164.4755003167083
-2.6290665814168217,5.240798911078723,138.32498962713748
0.3711082260764614,-6.304961702381091,186.9987826098749
-2.7077987339089247,8.15652060289314,179.8538095555528
0.09875969926661393,-15.680757234114507,113.83744537224183
0.1057640037844718,-1.2204891561873201,20.076316131530003
0.08649759770722053,0.17826806950183086,43.116588832817925
3.491179170345077,-0.7311394825379919,52.82454960951757
3.218626047315205,8.793430426673593,193.85904402832574
-17.72265152016298,2.9292808621595525,184.55015584913704
1.9930379334210089,5.099181323204764,86.19611550557282
10.40552549438175,8.256738162097047,81.5805773389189
7.39569616685731,-0.8430624453685137,176.6751247860681
8.028941248544188,5.7424360705861055,45.79794861750261
2.394688289511902,17.106668779680824,20.552906199094
-1.5331278326524744,-0.25208474870066755,118.0376332817728
-13.664568948249867,9.397627397895494,177.10047948852122
8.36082186059386,2.5837108210999458,34.50978395990245
-1.562975560725077,-15.010182144953422,157.13508768563642
0.286504234628707,-1.586174144056943,124.19841715447058
6.017423357998605,-18.001703842846325,197.918288648667
-9.674442267665071,0.4428737852934057,121.63527976756939
9.988689672363332,-7.317741858475431,170.14567393481934
-0.8026011661383318,0.5234370891291189,103.01629731789754
-4.578942103457639,-10.295084953622643,107.87399719391544
-3.323375226503835,-4.13535341535046,67.61400238061242
15.26279186791772,-0.468383188581703,41.945949924872814
0.4224039397822296,-0.8757319430639128,127.50268091062244
-12.759495250193991,-12.300699430479073,157.76600640021314
17.46457968683531,2.791269964172383,25.31127532206423
-13.715402345272944,-5.489639723954349,28.35573028598837
6.984648358004257,-5.540076715362232,134.56712667125976
4.726710109725834,6.640724152928198,43.64726146949991
3.5238522570770177,-3.1056331200602654,96.45964059840821
16.450854344335223,2.5158164101358595,85.53576725721899
-13.569093154409439,-9.460316961807408,178.373123053996
-3.917379324224537,15.274333267141834,34.20320316568155
17.566474940769048,3.432351134950634,103.43515599663678
11.258069241007707,-13.387735696633731,67.01095972070752
1.2932313987526443,7.8060244834276356,31.30749743080341
1.8442510623229345,-3.692117428022688,185.16681204855288
2.1911057480811915,-9.05096681899768,42.78177379825894
16.529521453804747,-2.785109682039855,24.359834530651536
-15.447353153918357,0.30262875408573475,51.71958617866337
-0.015993798851223484,-10.878100914084063,131.61875237225559
-0.3938109458143406,-0.10239205054566962,195.45173465296122
-14.324547069090315,-5.869019776426644,101.95864385100575
4.7798934973811695,-13.71930760862904,66.97313241620688
0.4117374857739764,0.47223064697663897,1.3250953611710692
-0.5512382606122948,-13.311973186777058,163.00629619418677
-4.5632482162428865,5.3059002889199025,145.14766135992835
-4.392335010761866,-4.3795202322746665,155.66624964838908
-13.651025324198008,-0.5251915371802359,67.9646164370431
1.4860119907243972,8.166546317797332,21.30360561845892
-5.602031370844253,-4.07621829014308,62.025901099750946
-4.056010015624579,16.11997644120962,15.695157632056823
-8.344758482082836,8.780046465078462,199.9821989892485
3.773817384046817,-0.32340606964345536,118.83952131786945
13.20187636771323,7.55083363083507,32.30931192851152
-1.6306878926712292,-3.6956612352909906,57.336207043430164
11.057235933096935,2.8947139918843354,0.8746546640680419
-2.3424448614445788,12.19614990526372,57.34005933044048
-17.60741759895819,-8.207142074307175,1.0646695833567144
3.3886131700045494,-15.972782925897771,51.67004639074677
-1.801381649101107,-16.84608444411355,185.08783690254697
-7.849298758671546,-8.072043225605347,129.99206078944323
9.304118507237417,6.624034790698069,74.9970272220202
