-5.658785350685557,168.32388620174513,-7.95175613492435
10.98212924527671,38.18397790886008,1.3846848624827075
-4.353291013491073,104.61342176560231,2.2382477830294842
-4.769381949098712,71.34822230054418,5.100505182009768
-5.076639131639433,130.74876604077332,-0.4842127681740865
-0.5765337395178425,115.89838710637517,-1.5609405105525072
-0.05183320697915047,3.2289087663698757,2.6928069616323134
7.986256091236089,17.144428896870355,10.650145959481206
0.349446372230968,1.755161688870932,0.020701022804626393
18.898192318184584,122.0825670033975,-5.652745864850422
-2.9163241861907476,130.33368780180615,-11.110567059298365
-0.12230107797690794,127.89011260985885,-0.005497953012925987
-4.110612544184234,159.62060813419646,-9.149363363838285
4.965735490783052,109.63739913350827,-8.732059098620848
3.2779650789099337,97.38511127185394,6.814361449265412
-4.747959333911714,60.69722713429759,10.596714653822634
-0.4110416979931471,41.28111045146552,18.92627279576091
-1.556293109396826,17.00138933866193,3.7142674382018086
12.36681554297093,80.16380312450386,-3.749793297071726
-7.720229557635982,163.5712402186962,14.747713151147918
-0.08391689926750001,48.17869266101668,0.013865608609104274
15.591396262527997,20.19092978391599,9.753276637556827
3.2042701719089046,78.39560271012415,18.186570088906304
-8.27195282627751,186.61841791200234,10.504465363191676
5.363684742794431,112.55187877976056,15.707788395353875
-16.25127405069616,116.16002869602451,-10.820981201616425
-13.116688532275996,108.25509908513997,5.439452323520759
15.910234787305102,124.65545009763963,2.5019619040116616
-15.269656787604356,154.86657414525945,3.1130141280333814
6.0942038840886275,184.44296097315905,-8.649718733934218
14.732692167029718,139.9783263432413,-1.469975945255371
-5.997492803040825,171.92973449797634,-9.323175854937698
-2.730868410201225,28.452502321502713,-9.149808665361888
11.929557296299386,186.28071574537935,1.2906476745235567
-14.751981774405838,14.572012018656743,10.417360059015262
-2.309526603842306,80.51099368783613,-3.9794959803543226
14.463903804346485,80.20164975574473,13.288558169153593
8.963034910434176,17.789324115187345,-11.46009321472477
-4.26000002694809,93.4523445610093,-4.2280627025382875
-8.499817936930558,139.70499641603504,-17.46653087044183
-2.592563127679139,169.11877885867713,6.953127495419811
4.465405370907928,176.44937278812648,18.209035126463174
-13.193397259402985,164.9340575751365,-6.658004615784376
5.473593147556228,150.22838802946376,13.153521690306674
4.7639809407245,134.6409015116352,-12.743446538681743
6.713037451529628,164.24005489422024,2.9920419978211052
-6.529735147448622,105.51942337935473,2.0877543361731834
-4.6424266574993664,63.41676574102966,-12.65193143829716
2.4999258952793326,109.4363249417023,0.4340283462312642
-5.844358779655588,102.07294904797438,10.675964624206001
5.0173860574923514,167.8607681268093,0.6241584253903263
-2.7916672775691,182.48059774547434,-6.953705862509152
7.914797512487104,108.71218637913691,7.137874354895773
4.783648423267747,185.1935209476212,-3.0417149286481573
-17.803876869342822,29.30779409279698,-1.986813926324214
-8.84179664356468,91.58110171673202,-2.409472725025356
-4.211576925057169,61.34419801369986,6.7835791630036795
13.851591659253303,80.29840554459486,13.104264797972647
-3.5292772747907635,34.259022973618556,2.6301806548425413
14.480335087389514,115.26603837305258,-3.0160988586856203
3.097659620940808,15.028946514407536,2.570817700132821
-18.417225359973283,36.78273555461888,-5.208551996657725
6.488301894032657,110.23848874270075,4.737073205141947
0.7785445989139278,65.19780387108955,1.0742059184847514
0.6701383162953023,194.40538328012684,-1.050103303317204
-5.562379925595163,111.78243472378912,8.943239030112322
13.251617466557144,44.01343104817701,-0.45578110184103704
-9.876348014213075,128.02147867677206,-11.513446098851464
-9.30285587837884,154.75663142599188,11.375327321646331
-13.620183230671284,53.21510568405539,-11.305730756308936
-2.156503337926207,126.0174875377061,-6.231393864952321
8.376505187703552,174.39414079706944,-7.043777096408409
6.675193085482705,84.93599501350853,8.169474513457105
10.624006158421166,108.95595694980362,-7.492528745135424
-5.060188778874349,139.17919510471063,8.986971774941079
1.5458319320319998,199.17557815061534,6.432948727995101
1.8144816392759258,32.46125443190473,-3.4609975303737675
-0.9217005945217874,104.33052566601972,5.039165764218272
7.257508700978185,19.121602740785914,2.9351464641938394
-7.7830817398601955,172.92742029252827,4.4791536270465535
7.478727629836455,19.67099963736039,1.5263346581651285
5.94857254781556,14.790339890372838,14.98174268275696
0.06768708856992772,147.2693457033231,-0.09043064990796652
14.621846784062836,13.495878982194153,-11.750156797060681
-1.9873289849469145,44.45187311564056,8.08261524980896
-12.284321647823948,12.390547596040902,8.135882639543636
-7.153154490622211,121.49927340870164,-7.635574863392821
-3.767568817153913,173.39068004525723,-14.987192278157126
11.056680490454863,98.47894728103013,1.339113135965621
6.523608062184718,37.19522375607822,4.449238717860716
7.3435145730099975,152.51025724844686,-9.038747484300796
8.128223427080844,94.33183851867926,-10.28340299060603
3.8119805038748,80.55328558627085,15.665759010215991
0.28022301047735776,11.015784598987487,-0.049901667074226046
-9.549658825761936,171.00164691040243,-9.828758245792152
-3.5483989278367805,100.89266285883136,0.22442790967235143
-6.938455579012442,117.199940785405,3.1124317752895934
1.1470935148904475,29.87856642833364,-0.5934094311913258
-5.529490075041984,123.18817087917313,-4.842309183544224
-0.35893910153106556,106.53971106472615,-3.590308007322011
-18.316955474540688,95.75060166936768,7.8715587953264885
8.28362464180361,155.45328507302273,6.684212995198166
-1.9489479234471452,165.86810038970566,-7.168658697297804
10.492089010425182,59.276749903852455,-1.8714178689946137
7.776848918691745,179.6405278656227,14.959175082328416
7.096446357146043,153.2025275804471,-0.033433470017390714
-4.726535563373719,81.2242861347315,10.66575395580921
13.315968515334825,163.53869733576357,3.302132799134096
-9.494638072514023,119.97827062041529,4.350526583686064
-9.74125586290663,92.54699823658147,5.777087382741025
-9.802350816086376,22.934878166114082,-9.113317215321365
8.78640211008927,16.285182520365083,1.0530405570775323
6.371316426072815,33.88708239778813,14.54230244831206
10.83674897708213,105.20726837129935,-5.5330794517756825
4.374585920005332,180.01494643013822,-8.34144577816356
-6.225498688789325,113.86425386869551,5.137185524822324
-2.789307932209064,135.6684757928866,-4.650069864372021
19.120153492154152,100.83536529735093,5.291683970345358
-10.605787154466372,131.21471910469037,-3.5749839073232836
-7.692644979031833,54.28241388533321,-16.192516430841874
0.73399950535665,136.0315280321116,-10.676697096784434
-8.07220650348641,178.2537506481876,5.347801605277717
-5.9179061782682805,181.9821249368814,-17.56049969388852
-1.7361523346996948,25.781790928128423,-3.574064390184073
13.26199628111934,165.31831540379812,-7.285477771768463
12.162821447509844,138.32597237383897,7.8092500989020275
-0.861119476043963,131.2348342191296,-0.21991745338975183
1.1800133475846561,141.72141156698407,7.489142548820861
2.00246965187832,114.90272743549117,-0.522868213136868
-9.405949978563285,140.02831696613248,-1.3597831736714454
-14.202245054674053,170.479715482737,-11.520066486699664
0.6089379396242321,25.864866668139875,-0.1623756877246679
0.072448083388165,149.5711034093335,0.09084555220540225
2.9846891315440978,14.735216901190684,0.9233684033466867
-8.700588031433586,57.7041036719304,6.3779699062613675
-5.122681149759891,119.59965108693935,6.144479761111544
0.5885542412478121,135.40947781647208,0.23131565700675208
-14.908089442871438,13.272696495305226,-5.899276450927481
9.598715791339474,107.03119268894685,13.929462722041421
-8.81054284363119,24.638323474393186,-1.7844800806470074
-19.033605565452294,120.4153973328153,-3.323377881327738
-2.276048256167746,54.584641134255875,-5.139399743848253
-3.682711411077349,179.0825821250081,-8.416478971838503
-9.250676979022908,174.6794111788214,-1.8627529223253598
-7.523116069201083,76.66658497880219,1.6879958241158675
8.333368058721712,52.719081589714676,13.244340848358172
-4.467562966144328,154.02584105460897,6.050198609984359
16.438186245525614,180.23562598522483,-0.10354317124516912
-4.875535120193316,71.0491579218344,-12.50039999260009
12.757379568022401,19.672138304404108,4.3913243498961325
-7.509418495112751,91.89329858638703,-0.4810891747709963
13.098807498947153,102.70662990054615,1.8114683585128073
3.8614473198892427,88.98577556765215,-2.772952913588136
-6.138165086054441,35.28349528303492,8.792251178012622
13.58071077227198,64.46987516487464,11.387882255930048
-2.235571835317549,140.05202054672296,-6.309366522193785
1.7818516920789416,181.91234344583307,4.407205647557287
7.836435787332536,71.71614574122512,-12.595131440931025
11.290520837696254,64.90960423277974,-6.268959230923215
-2.3950064376488838,188.33646761608415,-5.2594144687216104
0.9432321329985032,61.00593309792461,0.8528968077423792
-5.730982236701552,33.806896980922204,11.78035361572285
3.5320568691510403,144.7562221340429,-2.006860874888482
-8.158852496786944,172.58987264854312,17.809941459700543
-10.932797048553084,73.7656914343388,-14.620663744696277
5.93772924176881,162.2425592784958,-1.9212013657593252
-13.451606333316773,105.76961288710646,-3.874332856315224
0.9945461192112091,79.53260014882575,1.151388510602369
-6.758926996377152,82.4677651104663,2.2606281453926393
7.161494518127556,42.064523359461646,2.69599721126043
-4.01937236039979,23.800361398927052,10.43224268581114
3.60094849512162,30.636439583839923,17.279129646011572
-13.22343662887377,168.9532166762727,-3.582178206542489
-6.2082190582470025,166.52917130478474,1.868962382304067
4.099013614432764,129.40532204677052,-6.119560894482988
-2.43908634128506,69.19185381474225,-2.1326207046497925
-14.650828204840519,74.80677358367365,8.39966674216928
-16.05071822694993,131.66097758322647,-0.5245347236462494
-6.261266179239775,13.675045707080159,-5.722100397184669
13.516396725007024,149.7128250877201,7.422343466140089
0.4580609937236043,115.94074022650327,-2.467739090210006
-6.509641759953118,63.1429617249593,7.441465784689368
7.867237064073005,127.43884546600117,7.8788017946787665
6.198539905542607,151.499350636958,0.591233356379291
-13.746256595802594,131.30862737886878,3.6483107464020756
-3.5920392077678027,144.24844481552884,-19.52516852441555
-13.42883290302917,76.35462111758797,3.6256656366695954
-8.264848496024026,149.11436429470893,-1.3640014404044967
1.217698034416866,122.23307742308423,1.2967732130950569
-5.7037141123295845,43.40104069759079,0.2832298301287942
-3.5950169884901224,104.83090387218819,-6.625336469998818
13.147408892716616,75.3805935323671,4.166621299444652
-15.88279875427278,10.079325773996906,-5.048369950277462
-10.653697771850842,64.26560600631592,3.494465096125231
0.4123956249262926,136.38665339038704,-2.1076480905766366
1.3796883294191657,184.99487003594265,14.120515543815186
-2.2551509579891182,130.0615936889044,-9.90352364401598
-0.7948713798521697,4.928402910713259,16.341093396662234
11.947626640784442,9.41955143220563,-11.889399167138945
-1.566769153811427,168.07313161007053,-0.8671308131793578
-14.998536787588158,170.672658184375,-6.502867605741835
14.315971939912192,29.181445350172996,12.23818661311841
11.970954323083422,17.26768334408415,-13.402169330556433
-17.720548150021838,170.71753787124342,5.9186791111779895
6.179366900937141,74.77965600760153,-16.04404581411276
-0.48242934896259926,27.92047355333567,0.17021453396032288
11.725904568686904,120.8451871724902,-10.463719676180233
-7.081242863324204,11.703943701289132,8.868517403256748
-7.197493369743672,69.04723557605668,-11.799246647055496
-0.8972342554704458,46.261242822120764,12.679533314874044
2.699315232276662,145.41580766813772,-9.293713307406822
-14.532676980046586,7.685213733584506,6.790767025388449
6.31926693869737,53.68478310635014,0.19029252317019446
7.922741950082747,170.6537173613895,17.76325941339003
9.27844884697547,16.468271213331608,1.0476508065974337
0.5284567695800654,114.95952912511784,0.7179181995009523
3.62956358857869,10.692407615192923,-1.656903866758629
-8.811544213560694,162.10599482101526,-0.18330919476979213
-12.150299413436825,91.7861312546187,-1.5031231998018606
-10.258558293507908,75.80897700469534,4.601333077929072
-12.899552325170836,186.3674988526985,-11.64612677423027
-17.625927359832016,13.680910419039671,-4.8051839420367335
-19.521664398559288,58.77554225457076,2.9116155284169984
-10.689087841215374,140.80978196843847,5.47064205619293
6.355368618828125,5.424371038645703,8.900126814314719
0.023820926129259304,39.763456470380866,1.7745511368204698
-3.5646252092648543,77.13036450561339,-8.880487571446196
0.28037684537555774,66.38379253340878,-0.769591958852101
-11.579909920720949,150.5068880421835,-4.5242793793913565
-10.990622869450965,61.58987904701432,-0.436808035890896
9.32838150194907,3.829520841735312,0.6822320305529077
8.510770428418255,122.7595565232203,-5.354045937717194
-7.999133511672457,141.0482905984137,-7.256363440710128
3.1448540096699427,184.3707785475487,-12.145261412100249
16.440907104493082,2.695750776774508,1.3950165284670177
7.952601470963359,42.33834220145874,2.1060926312584733
-2.120596853611842,32.29992293690363,-9.288703044570584
0.46916742280815205,46.275123920059436,-9.525337059773804
-9.42243511434131,128.61062606731835,17.003879199182908
-2.691125433653655,14.823558633004307,16.45310305888634
15.259641857865393,3.1560811647636022,-12.067865655706932
3.4236717194104163,110.85655013355613,6.669614255317204
-3.429372621998793,87.7068837334555,-2.249830762014713
0.7204758269044148,170.96697174016765,2.120700982063942
-1.5499302439513059,44.89410649748895,12.033251379621218
-4.166628336770199,45.59935414406036,5.596502458806584
1.4159583782370102,184.1518423931742,-4.697030505971722
2.609109001072394,15.07814912612757,13.311555174880104
-6.379014139855242,15.868627411407953,-13.961152835698622
5.312422337173853,191.38885432675562,3.7667436814104645
-15.361792623405446,68.68996615265239,-2.7573180118546463
0.4951940903816648,55.98630255251007,-2.949532775332503
-4.614305833354987,26.564504074050955,8.372638359172656
-0.7833809907661375,152.35111026121692,-2.58702186981822
0.965199964781866,49.04604234791461,3.0640184097405947
10.209425456263062,190.95189094618644,-10.524770982154433
14.391585571392332,75.49717152855597,-1.2250822663405778
-5.791005738886181,42.710589949302324,-0.0508555015331973
-2.1499644642032614,150.1786699524624,6.073413234744906
4.094222900196592,113.51782458311482,15.352285498140983
1.2532843915500627,20.918768751423645,-2.8330485473111007
-1.793749084762609,69.05536787295341,0.37286741874407225
-8.257013768818954,103.89751592807866,-11.855964879875621
12.6869120124784,182.2874833177966,4.69097142515013
12.657030258536627,141.72950764028047,7.768136598974273
5.399899268481888,19.749052059524132,-0.7076414891868196
-13.54576808452492,73.48503356011113,0.2792246715569225
7.128298260696227,10.80763562626581,-8.48107706445019
4.615535591814572,30.422406585473148,3.8462021374062907
-17.277029217894636,187.86735572224293,-4.524785381312586
-8.47127590617402,85.31059430132153,-6.947071984993305
14.346095717835947,44.703729539943396,-13.070805584496416
-0.16678797083430055,139.3715707707767,0.9196420705455078
-3.378151545460329,67.81340341242121,2.311668765264194
17.686564445432786,41.4403811839501,-7.641384853182977
3.900129358360358,148.8331926816617,-3.993808206831644
-0.8386039273655023,32.80598301528397,3.1972782567434828
-16.790950995758834,168.83770817119034,3.214971545836704
-1.6301243025109546,87.76420670682955,2.964477465933869
-0.3627923260147575,83.53140758968016,7.152776011100387
0.01825790240465504,74.27239957354858,-0.7881594270520226
14.977514046619712,97.85734995073618,7.161721991633432
9.72395901827121,97.44716431632278,14.421184731925646
7.686725341613134,42.390122940187716,-9.003365309748188
2.9802221499713495,21.677776785751778,-8.891054774457617
19.64187548984562,152.29728457446475,1.210075858873986
1.6196530589459979,16.95320114838845,-0.5583597852164949
13.203889561905886,23.54588703172937,3.811207294083011
-0.2792355206093646,194.54752039203663,2.70151061094494
-14.025972959116457,107.91257709113896,7.693701398363421
-0.8637625079599062,155.36291093408872,4.2910684158983265
0.06226607195620838,114.25606743412624,0.3110991928191326
-10.215418478690541,97.43109456321237,5.145090435412075
-6.044969419122189,33.857593580983014,-3.082837954631945
-3.723367431790608,194.38772790689376,5.429535941924678
-3.621585054567713,15.900897912002133,-15.011189070997379
-0.7613414987172455,117.87090439127263,-12.198739377269588
-6.211995516124029,154.95084258217832,-4.830515250362726
6.046119780325475,162.52333188499034,-3.5926537266041767
4.392433954924107,62.56903301934391,3.959064009869696
3.89939071059792,81.57320246663689,-14.772816408841024
-3.6598083672691133,90.71739734400934,1.8564763444528476
0.04976014517022061,79.48863103647577,-0.17779551546804465
19.4042190371653,194.5842335285297,3.779087864402241
8.238978003820199,82.33094992944987,3.661903525213346
4.1057637454899165,96.52481951792905,-2.8192175871769924
-12.538759384339805,115.81334843576936,-9.905366531363264
0.7349531988463114,128.20636660555587,1.643420346220808
-14.208901324625252,132.9565453411367,4.045770807386784
-2.9341216213104664,131.54275279860266,0.41866082605201327
12.689451246645012,7.634681050630565,2.286663956527595
-8.559158847748561,125.75985497059928,8.612064932855677
15.86178854860737,14.657997205335406,-5.468207375892189
0.1564676597006218,115.8802302337777,0.10090486221813695
4.048399652980623,20.026993812430895,2.6071424526326292
0.5970318360093557,164.97897416509934,-2.454927163716017
-0.6521341961186772,28.555737059440077,-14.473597463504337
-7.8341255837086266,38.35982612216551,-2.7771743354088603
-1.737979387777524,29.733869910920507,15.475120341527598
-7.479154311241588,124.23496427637694,14.668100899435746
-9.280727475778356,2.904112604386677,-10.21709415271772
0.18535934628054054,138.7465917816838,-1.8956304987260166
1.5605975715828897,65.6417261402175,-10.251312738504954
-1.8978678259808006,164.25094885555862,6.502026369554448
-5.514281060030957,179.69864362200332,3.883197548840819
-1.576833831902801,9.431497087554463,-3.1331213433564384
7.728448234984728,39.50002795716194,-2.84237679506047
-18.311896693355926,34.66583522382032,-4.263859194738268
5.718133594967845,87.96410617650552,3.392447373032246
-9.389951943399446,71.12524630541253,-2.42404622248613
0.5312171419007314,84.3420945910712,0.12880263463754768
3.738027341992521,18.969334317536024,-6.41046675039929
0.7705568820652429,11.946839127867136,2.8214517661092846
1.4056137252146608,31.935350032212906,-3.827460984461866
-4.5676530855146344,175.83069581131934,-3.5198796381393147
-1.5154491246399588,38.296428575850115,3.842206095152801
-5.221731987019479,186.2010056951281,-2.5069888561673705
-3.3007453719685103,140.16927607723218,-1.626450480109093
-1.2559381216062844,72.75522103509498,0.3699591558334283
-1.2637875582900633,120.42531416574067,13.921949171997245
-0.9011451487935106,100.06966407592603,14.977562244712223
14.869229517119972,58.72678321674327,7.53168441123776
13.243416260701864,23.835823348461037,12.49394125532451
-9.56475726938094,112.5393516335905,1.8087985907913753
-1.764713411487062,20.297193189187833,13.698073372010223
11.016075485960112,62.47897324576528,-2.544849635118418
-16.281186256681252,13.355674235741134,-0.7159827774107851
-15.610991497818425,175.36929233378683,2.4916533706688218
0.9474741856524223,53.34232898318532,19.320661395063834
-5.87742174220804,159.66779824153818,-2.0664662238689875
8.948324288851516,1.228914390481295,11.221510938784645
0.9007903461093509,135.2204869182783,-0.25733658785932234
-1.0923781725601165,122.8707545567865,0.6655939620513681
-0.526954409560369,33.28707138660465,8.67472806658437
1.9600983491105481,109.49409708410136,-1.4297521714768222
6.7099796229195565,174.20836726909488,-15.796300057217861
4.289817036047907,147.5550790535315,4.065368017855378
-3.579263922831507,64.90107117299324,-8.9505077615911
-7.433356424162487,139.50337808040285,-4.61547539144163
-17.835345805778164,57.29344865491315,-4.282563506975186
10.981347393755927,193.51365888467683,-7.1414699752020585
3.675553058223601,22.630393751264567,-3.9772878607126763
-4.244365391312714,76.65422753750532,4.6410913031590635
9.270662076002221,105.98127613739763,-5.187056862967154
8.956964460188786,180.5000181401546,1.0804482652869105
-6.825482275047681,22.443824033614025,-5.032532776622938
-3.276449166604389,58.211928516626045,3.612194509758719
-0.8660492352569615,71.15771762175112,-0.2849566739006392
-7.10030040474224,80.74226247246601,-14.441992549081606
11.741659131487465,185.953795879361,9.805609622607193
2.7386916109110606,106.1426103936727,-13.288139693147546
3.5961821192373438,62.916559063533974,2.047525058633345
-11.229729105036435,34.55360428053788,14.94474311975979
-18.129692422191717,153.40990119065367,2.3246726747841153
-1.5310926604860378,172.34987500503905,1.3222394385585416
4.011255506041842,136.25346382920992,1.9182266765432134
-13.53045013491893,116.41213038007577,-0.2847374407589638
-15.406334171161731,179.1633439371743,4.151412867429109
-8.617345921630097,138.55941078096492,16.037035475260886
0.9002788759266247,134.96204641300668,0.5132003990271732
8.848340373618148,145.69755099271134,-2.9741069516897762
3.4718309379568453,73.66055117504531,-1.1386307045665154
5.158137889480526,170.16537325650077,15.356038051700338
-1.7363668329034496,168.30774714691665,-1.074142382120219
18.083273309397203,162.68543445236884,-5.2794982606418355
18.892227433129968,105.70789628298355,3.2938242216848796
-1.9864485520752664,50.923026154978146,-3.091003971236229
-8.66370582413557,15.767988022296887,7.985526437355754
13.244742068210288,163.8828135877634,-2.1177380052438255
6.282303356169558,155.75948929860618,-16.843875279383997
-16.501407480250688,78.44089382563666,-2.5161166601291844
6.323597658565614,72.71632592253474,-8.621348234022221
5.6772576557916095,124.03294138815046,8.289343588870562
1.188997427075802,25.3925418662303,5.1355758117913695
-1.5119614240239074,148.3059980611,-6.600011297786875
15.834070360488608,138.38541995887638,-4.134946252581321
-12.540670940019725,84.67302934634793,2.3960775217349743
14.901666571327985,21.213956734835993,-2.0161023527117146
-14.370810119107103,190.3199066955249,0.15080755500923013
10.529125104760091,134.73774976010756,9.601315929086875
-15.437380979046136,38.34964716778666,3.4117404143251084
5.272147320999546,127.28860155274589,4.612111836537925
-5.152924408191939,142.50735376178284,-18.722176640210538
-13.976893084933641,124.1484037458473,5.857292232201044
-0.41810587799330473,47.062960712904236,0.8114939921106382
9.911567674579015,66.5765798936879,-1.9800168866593202
1.0803244511396788,4.508169838055975,3.1005632682787936
3.2637137386038892,9.561951084992026,-2.7096258486535394
-11.045842419636275,40.37358881114501,8.325215311267286
4.447608724350616,107.4598091924263,-19.104382658542985
-5.078193307550282,173.43549196450562,14.705912670310727
-12.75158240323692,164.69729108020326,-12.76880525718453
15.223664894439716,103.94960428014934,-8.250429531225276
2.4540064400345503,46.9078289186317,0.3775705816170357
7.3039439832082005,88.59026945820688,-2.665003732474544
-0.7747849224880934,36.30877052538097,15.02619255465172
11.096184888163979,194.9864953931372,6.25898732354643
-0.5294360060890609,193.91170903093933,-2.3411834213391725
-0.03336513461683791,22.11402742087383,-0.2661137577020196
15.811104786193956,189.42640326639577,6.44407419031773
4.55805212586688,28.51831062896388,-8.017807545890747
-4.26554362261948,175.44649367699603,-15.244149956636187
1.1069232197233112,175.10889507676646,0.6849715346538335
-0.9669021531649565,111.05408966635719,3.281521981455668
-5.509631981834238,56.17985446217488,10.482792166200689
1.610349908264902,167.6685685137916,-6.61321438657699
1.6261133110974173,149.65207144235836,-8.789306540117401
11.732587585652443,164.05181797410458,7.374180733732635
7.509761184506687,102.51723576923573,17.532580949517893
-2.231199627813747,84.72980968684725,-2.430260838836742
-5.772753340013517,93.28027871118638,-2.0334879245424373
-5.738694993617926,67.84810524969566,-14.108221326509991
16.012292838084097,140.82621781275907,-1.5674386715800055
-13.222438330458548,13.16920232180152,-4.220415542957001
2.765743439670192,51.26701659516799,19.234926681603525
-12.90546774068727,188.35628848035202,-4.687500561782451
-2.3487756714214028,93.94205555240964,-7.595183541151442
5.849813018027532,92.2838552650598,11.888159824515705
0.9521496424533746,48.60965646723425,-4.967256127697646
-4.599664024331234,153.10939278682267,-3.247054930765279
-1.753472026304832,183.43831550774536,2.7505066014181887
-8.46433686713102,70.43306685252206,-16.278970956570948
8.926028804258255,66.45454194402092,-1.7985782470738751
-3.308000448205261,107.35209806358728,-16.31893612133456
5.26006085102319,10.788248880823303,7.126978211017895
-7.215874878303854,112.14638768414898,-17.26142485215136
-7.399168582832128,75.37799739395471,2.3093620160460024
-9.089581011738298,30.561056976784464,-9.63946022533623
8.659165183232266,27.705685674445178,-3.5255992212013108
1.5852553947145742,48.00390222438069,-12.042144070652112
-5.970157553183863,94.34125374135729,-13.863164441803992
2.434207107935571,59.01965753330003,1.6586798025402523
-15.970842366706208,135.95367469371917,4.551958963439241
-8.910728290691411,14.357665900029048,-14.430547194425001
4.310313233054131,29.44071878720862,-3.919563406035483
-1.080333410799996,25.66270989754731,0.0709510650303772
-1.6685262523832094,164.2477571958844,-1.3964270601726108
-18.247922988935017,88.22976676408058,-1.8069756052144756
10.499252977066703,140.69731755088128,-1.8432823733259573
15.595433898629052,101.42011559515336,-1.9331795693962257
8.343698452155804,86.17043194863423,1.2484199553694588
-10.239159067695002,87.92359605163989,-5.669642436027012
7.604645781598487,98.25270735524387,4.597265876977236
5.3917327299408475,13.858356979710496,0.07231053619228552
-2.1577068362841896,82.9066032729617,-8.615246120221911
15.874516848653707,78.26649860614232,4.782018992946205
5.916742245264801,94.23402900370735,-8.409904902076976
-1.6705172896220803,17.54195830201304,-1.5737616847422307
0.1102736425845028,67.84236962172703,-2.554493257825929
0.8783283340971734,168.19796044767534,0.9919215991039881
-0.7072967630402889,155.88710057883623,1.578216003549092
-2.7234617772538368,50.98818828301421,-16.601157329407155
-3.998258797537365,18.14025864430324,11.270680410088183
-5.393624065911619,91.54581384753769,9.112918309944096
5.263042311500517,144.6854848626456,16.427845702360788
-0.43868133780256774,5.583233417184386,0.35770088243027304
0.3122622080197377,133.1475594298232,0.7867840133349211
-18.281370663453938,120.83908543068043,6.700071920693331
-0.30048650981786784,81.2513088517704,16.272419971252827
4.7835893290966425,184.2009614943889,0.8332719958543706
8.943497062132439,54.523890885685546,3.6035037674033146
9.894201679669791,85.27666210827347,-11.393155455143749
-0.2563261720264478,51.757771863564805,10.34967029791843
-1.800822099717302,141.91363576694405,12.316414487569718
15.746906462040432,111.01388132104752,-8.161811733292671
-3.97257004088331,183.11328888968816,5.4716243794508275
5.193779514291679,155.28106937992294,-2.737535829726222
13.767386249539848,172.45915897436467,4.23078080853714
-9.95474147480337,9.506350886675307,12.180732137486952
9.048548027500944,157.6209543839032,-7.985835688922044
1.904604209615393,187.29333926763854,-0.3528376102265464
-0.35093324941334836,46.26476968362239,0.19171698434795767
7.50211766688019,168.0377902951343,-16.85368398185762
6.282775646811668,173.98823435137226,4.929134821722066
-15.51947474455329,65.27995514625911,-9.74401703859041
0.6004063388788039,6.809644100221579,-0.4393131461751507
12.311974893852652,73.26969096822376,-1.8668287570483826
3.5309389918081764,193.07572907376982,3.5965235165926166
13.615864901366582,28.12891556328396,8.280035812352615
-4.922302543308701,188.01786648238908,-1.6497240001209932
-7.338819175217104,77.30823472955362,-16.556676784463466
17.00868621335119,43.21447836376295,5.278540546021097
-3.200995389779144,188.24568593122103,-7.916791432255312
-4.1620893766438645,23.832253891583164,5.931545787050297
-19.304313558854556,137.52062031746058,4.441185119420368
1.0767576941233392,122.52933638841068,0.3364882216311531
6.78061775987489,11.116822635479728,-9.513093379519637
10.743200753703839,95.79719392159743,1.6348293289770592
0.029591227870215463,107.08016271703961,0.9430065058912485
-4.891149435049377,46.685565138472796,-1.3961534795789494
-12.493828999505523,9.416751869702434,3.0106599011156616
-3.7293454573655955,91.40273794232776,6.159815045357902
-0.6375765694946051,32.25148085191012,0.9936957662100123
-9.638197581652665,131.64880077321857,-1.3672021720458678
17.319419589575862,84.49154907255388,5.188967013360599
-8.838036564969483,38.380201584336504,6.640525243933745
-1.157692242453866,131.35937129220994,-19.38462086690818
5.434167052368395,154.47645701475048,18.5693581211423
17.165685437363308,116.29496891760623,3.4841218281556317
-0.36205335399779864,101.9498610890456,-15.211931194632925
3.537915370430263,82.22854270067859,-17.82298364188179
-0.9338408668774506,148.349746468801,4.530553542555465
2.2661515584086627,113.02062877051458,1.3473540907032946
9.10047993897614,156.92143696725057,15.226952813231149
1.43275613684876,97.19403041943467,1.2055426915751384
-8.588689845724016,81.3265582996905,-8.335265803615219
-11.1477204276205,175.2541060647912,-10.237438421422018
1.5934468167073332,19.533936956240193,12.20610248914537
-0.3406081349108221,121.6240342664278,0.030379243963503916
7.924051406270837,72.78473892955091,5.0060217818683075
0.20987494237794754,162.51292191450204,-1.3518272874537276
14.918958484678408,28.8332459773182,-7.383563330529634
0.9916656728210786,163.49782692373495,7.880027809081482
-7.325630517145131,184.81663557756175,-16.707204672247286
3.710614105603594,110.39158333743015,6.401719033490155
-1.0073738347276588,61.13551185685224,-0.928637162736675
8.138906331460175,185.01756963562806,-5.8529328161108385
-3.13803420333937,41.59330592470711,1.1043765864331743
-0.3374050256974703,128.1004734370426,-13.411737088410359
2.0139139591854986,37.93806239080231,1.1231318541443134
9.25712482112626,12.023565634204125,16.825540262302585
9.712912692981869,153.7004643043622,-8.683348356753962
9.159624810101747,62.47125911271336,0.47924864640854836
-7.574757409178529,3.306855558704669,2.423077066382053
17.293256845379343,16.417661459816735,-1.2424334790701093
-6.454569435275576,56.1870762174554,-0.5295753579253896
4.454242604008041,134.3373914358137,-1.3261051265351804
-7.368290435783915,142.13034109283623,14.498621754707452
0.5148257217889527,197.29131387766384,17.954828774336644
-6.043005911016929,114.42459955950332,-0.7347858239755787
8.660508679680524,12.970760319470308,2.2647963800322364
12.861440086881785,116.37643237296362,14.695706400328078
-3.594588593141901,10.361192399394703,-0.4132707699802555
-2.202419918467366,130.57019225021125,0.06744472273779652
-14.833794593154161,134.3811172769649,-2.2271553676275597
9.425658249473495,132.33581835028653,7.447373300727518
9.106555058836241,113.67385138595387,-6.490955676437329
3.551545922055704,181.54870948268592,-14.785946148367426
-3.5483494685605885,57.59677138329751,18.80535629756653
0.49138419092539704,110.662889737243,-0.8038550290078338
-6.272934231051523,175.63423119892272,-13.584729073217256
-7.414748787318626,179.8108273100681,2.38031541925789
-12.85580890061619,45.12382290638317,-9.346687113304188
-5.804389836361753,129.13919418672276,-7.5875248310179755
-6.3170843467082625,160.93742706391072,-11.032064891095999
-9.431236921877034,92.69033902973145,-10.874780099834284
5.393751661826425,29.19494234893174,0.7095830216152866
8.094316353934742,159.57752607724166,3.018292360543563
9.593777347550086,144.99378329349827,-15.435494800471785
-10.52836131097334,4.670060789533093,-3.7922001740752367
-15.200017723259673,199.62922709056954,2.5702364160450832
10.50733174992809,178.79369740322758,-3.536898530818831
4.193095576626602,88.07597234243325,-0.6714845320614153
1.5554553204132138,128.83375144256274,-10.275446812917123
-6.16063274971638,4.378250598341893,8.128701553045108
3.9324199795074493,127.53741083549366,-5.035229277167633
2.1218345881910174,57.10621772528626,-0.05859452615197997
-1.7633017290695674,139.0490242956097,6.9053538410922775
13.147081299525748,147.77631122286328,1.8724147719425441
0.4575003398699504,7.4544801156309015,16.73171916779203
2.347160548834175,16.531700880071586,-0.4977458017031254
-13.915403860589247,55.28113117891087,6.065409485162481
0.5043723657152015,53.75839407519043,-1.0919011168971997
-1.6830547837045202,116.90825100193713,2.2761579881802
6.859904273816575,198.1136934375872,-5.078820643570195
-4.757755556664651,0.49164376827348644,0.20682143416600032
-4.008360126701573,151.80622932021691,-17.837513865766194
5.287490496776946,43.580057913938596,-0.972401368712563
-19.488072557660455,116.24083665434316,2.9934275521547713
1.1458925132617628,61.37994702971754,4.7302079503493895
7.244117512038844,149.32807586639183,2.99100007609775
0.8978476672030039,64.79761083615297,-14.940755186061205
-1.1858901590039508,105.55802755906814,0.02741536326930874
3.26087019486152,115.2352622586567,-5.187979348079701
4.6790247709926795,55.71482246705954,11.406791917382405
-5.9503600889236,10.950056394498485,2.119457096801294
-6.103874830914915,192.6876050004014,0.5790499743225272
-5.128555919770172,45.61218297728147,2.6182661813324892
17.179573009495908,146.89622212440383,-5.005231175429801
9.678977478133518,139.56216269948754,-11.727182012809646
1.9341512286609115,83.31448854520566,7.171796451884877
9.14760540301427,7.391904114267067,-15.0769921877883
2.8401745256257382,55.405423326596214,-1.1459972066459048
-4.318999734456606,113.24995817272377,3.176080664708004
-1.8471351722498044,35.11869701187429,-2.054545305093091
-5.173186740993255,32.12064860487958,-14.87499458939482
-0.9924627919896437,85.8414162137106,-1.4625710043334035
-2.720961496768637,140.49012749264136,8.381002897565544
-5.970751751155942,152.26787583964853,-10.521755280040098
12.198241080823344,96.2489719248945,-13.235999900164408
-6.62849825530162,163.68575994252512,3.650322253216835
1.2335471004759646,172.03975184860542,0.19825172482086234
4.130964809238412,69.79914137516722,-4.477057244482924
6.565154568903274,165.11768645975297,3.049280670707659
5.008595823561177,170.58031751012658,1.181702626144723
13.62148809207472,40.11657909530435,11.096943028021407
-1.3432111999076763,194.03209242598717,0.6386524751529069
11.345266974576825,44.3937877329543,11.7586309937426
18.46013637786173,40.722838568561,-6.649651069641299
9.598144794982643,180.82445881807953,-16.99142564807531
4.988648165621579,108.53311281792503,-11.323093373314396
5.008077329933598,47.29949936046485,-3.523903241460169
-3.8631449559956565,43.197097228267964,4.007372039478714
-11.359700162521314,22.854558096052212,-8.577909102863416
-13.75472879089709,161.47774568918663,2.038334568471643
-6.230696147886575,167.65415326972703,-15.653683732022236
-16.647021128938377,116.81152570072102,-1.6958987342099836
-2.216793559782438,8.669373854805663,-13.140027604646745
9.454698708110834,180.0052437480655,6.341609569191926
0.7531847173080477,78.06055065876917,9.656239022534228
-3.4258488466438837,67.8617400570786,-1.2297916460143141
2.2705840155853427,138.0322513984408,-0.3592583100822584
-0.8331264487366628,139.15015937843057,0.5974988962163992
5.409985332645913,78.21365244915222,1.4535708130490557
-7.564314727443538,199.55584200601493,-8.397879724215763
5.613991199217275,109.06669937446152,7.917547283990231
-9.671652508138234,54.87058868736163,-3.9617341012435268
2.4737121393473984,42.632992630883024,1.033716913603213
-7.917137401714589,94.64693478056758,2.5019828983571495
7.987156599335233,170.33424357099142,0.2676845753835642
-8.994688426339,60.86355443244278,-11.433372440546547
4.968041589445461,156.97521137981644,0.7576287077707193
-5.454963574708234,136.47852534176297,4.23922576671307
8.276281222470049,183.92101601362802,-5.407586288623668
-14.16607411280266,120.0818724360239,-11.999240008693619
-19.417121356728337,114.29479371578257,-3.442514085184393
2.328198627944344,42.1924180635954,-17.17382039743845
-14.729157666473148,132.97334989052464,-5.323823530633955
-12.160536369627192,61.16465817717962,-14.110799764033434
-0.10062631473650108,23.80548156374718,3.6061234692193525
-1.6990456069378737,158.8009617324253,-6.775997974292917
-3.9519356241394585,21.843393878364026,1.1534998248939086
-4.065977075466134,17.292954730396804,9.922805397042756
4.132830861715406,66.45059408337006,3.2207789962502007
-9.931599603420764,14.023995789679677,6.041472522968982
16.192137750594092,174.3953030693427,4.7457924120573365
-17.607548253060095,65.89970892467282,-5.187895548016119
16.957220380410977,85.81459643530911,1.1121037766837192
-9.21289430107099,175.72477998396923,11.409973302776129
9.61587149305474,173.76751440679843,15.420192106745608
7.9208301244425545,48.150049515433444,-13.466294733974381
0.06365381792006478,28.459584854225618,-0.048433838287319196
-12.033466760499476,110.33084163537632,-10.40529968449144
2.8017092243783335,28.945206468177,9.372078822868485
-4.698131110667489,20.58470187793089,16.310647536083767
4.533532903623184,139.08747204670667,2.310904616970197
-0.025223919541448304,77.88147328464031,0.5813536788318747
10.745628978874908,183.88074710120316,-0.34748413563444797
-17.262735274695345,154.3914254617334,3.1808759256866033
-5.716637638764633,10.926790528537712,1.8353421145475604
-7.102681658419487,1.339776319673347,10.695959525702792
-4.738871358829008,80.84894372404014,-11.380093528769326
-3.414630767525318,17.15178241388122,1.5792975985243198
6.36094572692647,26.226646204417502,1.6461010332679653
-5.043362945986393,88.90379266113852,1.9059160058899476
-2.442186664261182,109.42319547626656,1.2566401471186157
-0.9969208021358745,24.721457994115625,3.0826862147855985
4.275102736861453,129.79548510994508,4.256813473184418
3.7282256682883914,169.72195600025742,1.9960661524693442
1.6384545314732315,13.664911323742368,-10.740142535482528
0.17640293425077574,65.71553615073238,-0.42166795677302177
1.1369610673292168,21.990330884065568,-5.701956874944201
-4.893663516162877,68.76600828317959,-0.08568327740947741
-4.013912136672929,177.71411349493408,12.930961218379984
-15.373812424806504,128.89681453337607,-6.072674045018365
10.379363274638473,180.65117244570098,-3.721681004507202
-0.26927488626648477,132.65166953887316,13.439653470585418
7.1904565887254845,147.02784360527588,9.6556626795602
8.654208227680298,130.57502578533763,4.120637753917154
-12.16511040795096,172.44137519954805,-4.147762734574636
2.4195983494778446,8.665687856376248,-1.170414601033261
7.423679511174013,96.54884736311114,-16.155161644973994
-1.0037089855008836,23.820932005455653,0.9448735236784654
7.1058932165525235,181.4847719199687,-4.4587003318260825
8.1929228040536,60.67494516467234,-3.151504076846785
1.6225045939574012,3.0484298616879846,7.85859847892461
-6.133891884715549,79.70905822720866,1.9599511662978335
-3.9849068197943867,81.78612132102283,-13.438610143164322
-19.715039269182252,42.555223291609614,2.6568511901619414
2.5689354858799716,107.70100520632069,-3.3061947098457245
3.8024829009059156,122.2337868365069,-11.106658433401345
-11.397000479374782,101.46842481981768,-11.443319544507093
-7.314385544745352,132.8980698295535,-6.196030246329746
-10.371803661171723,93.73351968914724,9.52235532262775
-3.4243093220375895,167.66920325853195,12.921663818100738
-15.268103176821908,69.49905629588511,-5.129473514395442
8.859023584797695,94.445131780555,14.92874212552589
1.0898991380508136,140.21114314928388,11.057094278802923
-0.9331307336747817,192.73164541521516,-14.855736647080493
12.073571046409622,113.53725608475851,10.034160866736848
8.931724005014233,173.41076537014172,0.8994023690199605
4.981924444664366,36.66765838269037,9.323069649552606
-4.761835765614615,114.49211283316171,2.3252194251678038
-16.28020809595251,11.010938681258665,2.6842397820785004
-18.5526237704903,54.346883436136295,-0.7236206404352367
-3.884261583197857,91.24956442710356,1.9151820994177187
5.656300419276714,142.7551499821179,-12.198971865212675
-9.423547320576926,98.51841768817671,16.696979244941268
12.627775319958477,67.99308629394073,-2.61303140551012
-3.97496225944706,32.4256409947715,7.045646128849496
4.914107863812054,125.93171123772231,-2.60626832828163
-0.6855461961255166,101.59249715501785,11.162964420764496
5.373249070217872,155.09547389740712,0.8757040000326006
12.19985177646591,105.77478834550685,6.276732820853302
-9.86734673347257,95.27845934636163,-11.852472939756769
8.85125438706307,163.585802771269,-8.446719179945484
-0.477531632584383,51.0130101463468,-1.0388062512216343
1.0662051474828276,27.489191347251808,0.6484842455173274
-5.225408519286615,29.262044631341876,-5.882425570392315
-0.4457054177839389,140.16327043931489,7.047041206164211
9.491321636300567,46.49466618642077,2.5171434943829394
-0.955211843459748,181.62690331668304,0.6467746717000128
-13.086374934539128,187.02193440125566,-6.768902401356475
-5.658168770386364,72.25660325464193,1.5615665854074596
0.19492646943823835,136.2968061538902,14.569943935830441
-15.651831527807353,61.536238749301674,-8.364254731610902
-0.03848690794990839,105.46454578960152,-0.2280260273949715
-16.154676225033743,195.58899186265387,-4.85703328100442
-0.35635214678786215,174.3397020680418,-3.8836271467316137
-0.009399315215847574,171.66263096499313,0.14995051592653025
0.6839279093621762,69.27483889214618,14.897454917877159
6.5879038167171595,2.652696409960731,2.396785726633435
-12.280686922511094,131.9878991782119,2.5489272000400214
-3.4870752720961944,109.32830684371547,-7.233675623560854
-12.03451590999588,139.1602931802882,3.588261462994071
5.59157820348023,168.47968726070792,11.271626146867845
1.7220682299636185,50.90437203067064,0.94357016984046
3.10656479622487,5.935015134669985,-9.960174059133413
0.3198481330543116,23.024519369517236,-2.472110059699876
-6.873262074794132,52.721869580157346,-7.565285159389805
10.557170549657062,123.44824137404305,-4.733416529974539
2.3563446334919407,180.5531965316466,2.9410492355394293
-6.575132748273755,76.65252965660936,4.828430158393669
-9.76299321411509,152.220840771561,-3.9200557858775307
11.315710913371005,68.36607118402638,-0.3669688713816307
3.057760914499814,146.1681346096817,6.052520195199414
5.7046863231128135,57.266344199371844,17.23456128066588
-10.746796563836554,89.06895517897577,12.514279111639818
1.8101228303158647,119.60807421787854,-2.3039700095924505
-15.194151615069462,38.13823499446385,-0.32042742275840036
0.3661261423961167,139.85193217916753,0.7894470375182867
-1.3832693960823759,186.366236825329,-6.042164937868156
4.345546288916623,104.1697324662473,2.626403040984731
13.520211079538441,187.695999179413,7.817144153772936
-0.8678420829601904,42.866087956649636,1.5879027493569127
-8.61712280224934,170.3888178914112,-12.699906107273135
-2.6607142261741785,85.7213510547338,19.308316962535002
-8.638916143550707,86.40512690860307,-2.4143018758390626
-4.715622091034388,135.0600795168517,-8.98580150685327
-2.357015463820203,86.42507583227696,2.018450546535422
15.45491888382155,120.09607045382317,-9.169861544105581
-0.40679521036088784,29.332611199597093,1.6197173970797116
-5.928079355412466,189.35566611016378,0.21591779645175554
-2.6690378391483716,84.67756892827953,-3.7351533803685832
8.005349421405755,33.97770672708291,-2.9125287940468683
14.195096839915955,162.80528160759863,-9.936974066766394
-3.060591586052942,177.75985620767233,0.08632010819568774
2.207129863998317,159.8668847871124,-9.005819915405409
-0.22433445160581847,159.25950156548433,3.439294506541275
-3.29274078784677,27.568593471509107,9.198059641902056
2.5424334845452194,188.12039557941148,-1.0803181696598627
-3.3991170448132393,95.05388784231614,9.159691809142341
-6.474082586680031,32.87016341300537,-4.085906363900137
6.540686213653674,11.121482188516074,-9.010217325212539
-14.101339192754784,43.01111671089497,-7.541075870326464
1.4067062045380634,196.1075693923933,6.864881180639445
-3.631993934565093,38.055095333723955,0.7479202417466538
3.410987777115465,75.50538689729882,7.51393887615458
2.0721115796658336,168.59384217844388,11.939658613260846
7.19979414861105,77.14160562825705,-12.076797898072916
-9.906647235204414,115.98378920537051,15.376443380892136
-4.29273943577935,29.27183615016684,16.17375762696784
-9.42851958774865,155.45140399045704,-14.026035954268307
-9.323995277070466,33.99644595866131,2.4336709471750777
-2.6423558068430633,144.79735135444878,-11.640428223709314
4.202686543322118,127.84422566275084,15.228048693385311
-13.571698577778877,138.67182341641288,7.468820616097964
0.15113658981327108,18.65473525853707,-3.909282178850536
-0.9446033916078149,198.58135863764986,-0.5988841231441392
-15.027688679937473,103.79068681144632,11.92776224411253
4.81462999420179,101.35270577570503,3.649938832613171
-2.789026841360426,90.38659291413104,-2.194389605169151
7.724186945902311,111.6175679828176,-11.228925920353028
18.255662890693145,36.99278255451128,2.1169944213661522
15.114629515564657,135.67094904491066,12.830166352845842
4.356184214885402,66.15747248066235,-12.3743095783819
6.857584997739868,14.610979291580017,-1.211528464466851
-4.6556441290456885,80.33169548640959,13.587902861976103
0.30169755703143314,187.56779997415993,0.15593017417125532
0.4307608734722826,97.86971071225588,-7.447084314965658
10.512951957320789,69.56004138000628,-3.7443311428703265
-3.208262841662571,120.07716365507133,-1.9732934313788129
-3.684661655672018,148.55662904437708,-11.503267785324255
-0.01722461508687256,182.69487585595,0.02754061838158146
9.7604515612776,187.42218301367498,5.187039668858634
-4.236904438560434,74.28002569547026,11.717414905497765
-5.853005105015798,192.5154132223813,-3.886223065215869
-6.688568639522156,130.4834330698423,10.120314161153305
1.7448359565293101,170.38533236451815,-1.4044459833280536
-2.556927329952713,55.97097330861591,-8.834275598736408
5.052259993261377,139.77965507578782,2.2338618856672223
-7.143055475292381,87.35153515592803,5.104262846675027
-2.709609867581548,47.29650300461523,11.625374289617064
-9.906041543627477,97.42170248807824,-6.976997882864007
0.033087580476163815,94.70342177763685,5.7650763346739735
14.973778422488513,127.02246373326957,-8.526855695256055
-13.236648100998423,194.61536918804157,2.6440111010836267
2.0564405594059982,101.91777703315206,11.000272158132413
2.6710227008157816,146.29179660954355,-2.7400576435534894
3.7371684990796044,177.36649271966866,2.4660373654674905
3.0058893906466553,6.738516181664322,5.729570396100722
-8.135354448383216,86.41095750948855,7.288802504859009
-0.31725761220875726,22.005175955130674,0.2418871826024335
-3.757113543222416,24.0157232836131,6.318615570630684
-4.5201213209947815,37.44958680447734,-19.407663341721346
3.727320559521344,36.090200681210206,-1.421292018352482
0.9494485738086937,193.1993144869649,-0.005628106940804661
3.7447758975232612,138.20520677629153,-0.21156133085024134
4.875239713370859,174.70283265631988,-10.528359218667974
-7.875879325388659,86.03192099859753,4.986108867355234
8.347321539562117,72.57310348582375,11.22181866370627
-4.946194210193021,188.45998151229608,-12.645760717733497
0.6371324306081784,135.92318021836803,4.718197871981997
12.021284342562913,39.1469153046579,3.3836867199003033
14.96055112461609,70.5918011853306,9.57456512840984
1.8912540340714532,23.687477401446166,-0.6717732623785561
1.5151047229620533,153.34987186269728,-2.888903262712613
-15.27142236869237,105.75240449559968,1.7379542132462773
4.8325699803045525,187.4879453579433,6.763429952558495
-12.79514838154062,184.77522418371572,2.6200356372759117
