30.93107819432116,-4.800686260446555,0.6259892176623219
-41.392315251960596,76.36706529260702,0.5382126884140139
23.93722908670564,-30.09545429064746,0.27027002433278635
38.24717950586184,-162.55562517002627,0.691520438659889
5.882685699745341,21.74832091046893,0.3296540932055835
-91.24927815096946,-132.50530539891005,0.9593378648679806
90.7128624983948,-120.08022499752416,0.8480245943057916
14.159796094681273,-43.36460292862139,0.049549012909625656
110.18112855902888,29.555956968680817,0.38566064784174003
-38.19817802589174,-122.7860608224155,0.7610073966281842
24.017698560273818,145.80467965137765,0.29962725306245863
-21.46823668896973,116.30842950342056,0.9350182374745467
-18.227466877225602,-137.8962606173597,0.6297354341177008
47.777901209754035,57.30008239434068,0.9137105225734757
107.15141907376737,73.18405307964522,0.8279048299131249
0.06692272627100954,202.40512391645265,0.321915109226113
-187.72070069519737,184.29492170918277,0.9005134019216988
-21.246566997397558,-234.99450648964148,0.30467252564806035
165.58206231697704,-45.32733586454792,0.8303392077016287
-21.733723647406745,34.201086175693966,0.5675585745857286
41.73414722255042,107.8338675737969,0.7525737409456571
83.5712011343589,32.20166343337452,0.7105151480163107
235.9068508274511,78.85791995979969,0.65229731666491
82.68885860721554,82.21632374777023,0.878377009542491
-160.9811311541758,-70.65757052841715,0.8385604862801733
-96.34681916372881,46.89538106637994,0.20201018719201047
-80.79595835406556,-167.62790969630785,0.5165285427079218
-89.85765413324486,55.536728620899446,0.7795333627983531
106.62867527381901,-68.28749494177468,0.8198970940216754
329.4564141942354,-33.84994548876376,0.5523181655183907
25.90914017095447,183.88493025351676,0.2593809612536284
-113.01446628325765,-174.956898993413,0.04235656034922708
8.850717403554047,46.56206031954602,0.3326570390806439
-31.426543882174318,18.20128188175159,0.43549710633989724
-108.84960121272074,-44.98393678226936,0.2937284070156376
76.92447221163104,37.20486611871458,0.02582505730061191
85.92496712809232,-9.363624724220369,0.39003672065254946
-111.77821125356837,-92.0564887846296,0.5485243261520675
90.77080297945218,-22.334060990446737,0.8446050892463972
76.16305275220346,-41.79364813872608,0.3131146566663505
-51.80124414301931,5.495963112509058,0.6556872054489548
12.840397081844188,-112.915581274403,0.7778179618246659
-161.64333913800363,8.053498169716296,0.8177961480099156
84.18715855966282,149.48584085636205,0.5256987647579844
-51.32817648935513,47.38477164165436,0.5844503883937997
-115.45902723303702,160.79241557795197,0.2787383890558712
116.8904353224026,-24.168828926866144,0.5609774665381706
46.83064129641364,-6.492804684395802,0.8365302408272501
-21.434272056958648,89.35656276874623,0.08401515933854209
-66.4305836246218,-85.1527241418826,0.14110017914340678
42.80914809331625,196.3808409111919,0.6991100146877502
-24.196331728692087,194.1223903286913,0.2502500211133154
-46.76749977887186,22.317457708835985,0.09295336051323255
-19.100507599290133,-56.585328894744144,0.9774743551970841
56.646600011865424,40.490606377101635,0.4289923450868154
-75.52005778934868,-238.2077444591998,0.45346779958629546
100.16548687625415,-46.969124782647086,0.8562894222360434
-62.2612461389225,-151.0949629280741,0.14631345491355263
-30.491419580022626,88.66071187920966,0.09686918343106166
171.4001616983214,155.89274013441593,0.010186684998802265
121.79220310725162,-147.59571855370692,0.46864502442810707
236.4411124395808,66.5319903011744,0.6991698671446802
-41.117900439617,16.033115003475835,0.46562618928285104
-109.18451194165648,-109.4523308746503,0.19183361319277192
-163.78351821512672,142.5672889642139,0.9284402221397067
-57.262676480299625,153.78472832203073,0.3579405335432828
5.5601632682780355,97.99919784548561,0.9118430257119757
-27.908121021988148,-110.72227455781479,0.5424587247874632
25.226451100672147,-180.0509674997656,0.12426607970084036
18.679296805076913,9.15685235337358,0.5648337195945498
78.69188164715798,-152.73980159480985,0.9250974892588677
-101.73463485969995,-48.2289534620528,0.9647508855163693
-80.97256868678063,-40.98315185216804,0.4225232030460153
-49.12921893095835,186.68491187538854,0.16117080458208066
112.64880275132774,-134.48471606325631,0.8211863967227726
57.98834283561042,71.88080546917757,0.036263280717136026
-33.130365026007766,49.78361946451106,0.7486445386812498
126.7753349818201,213.09422859671662,0.6322559796435464
-66.64068360138488,5.861811231493728,0.4184482373384163
72.49935671859292,170.1777017456182,0.11713127880516538
126.40451022327134,-201.96002074486418,0.963596469469023
83.65218649560909,-114.89996093901588,0.07052471703380148
-20.39404432039131,-70.43853415025556,0.5371946478860559
-43.19841828008927,-3.4020167736922033,0.8098826868380168
-44.07818783760766,-38.16909321142516,0.7305092599939006
-54.37683040875571,31.707941970857078,0.8575675292615872
107.99240655457429,141.86583602050658,0.19138755186330192
80.6885791704418,-10.678064166335526,0.8720679802861101
-64.56052560486702,-13.765613951400862,0.33079198813224064
-109.08937926261919,-41.77128806682719,0.5056786227329519
72.14542042385447,85.13240765024702,0.24898881706516351
85.57886884523548,-100.4117385912072,0.4613322498682524
-154.15474698057486,-224.2655419603655,0.7026448000954765
-213.68325784626484,102.31903273830018,0.4246054524713777
-212.02378718822072,75.82407169423928,0.46890048065184564
141.48254170933652,6.747427304506201,0.1076739676923959
4.226345004587721,-60.28379393823957,0.3535576383134994
2.80424352880409,-108.72747473168974,0.17547147026375998
-166.35534622264646,132.826526239264,0.660014866543401
-86.63311799720206,13.34432224203429,0.8698299595129245
99.57809300048402,-100.15330254068229,0.8340835359669735
86.93659624184947,76.43461107252469,0.20973235570010085
41.067002827849215,-99.11095920542778,0.6251093666324133
-69.59010031713663,24.160027011578798,0.21217146579002144
-228.58352397147667,132.3811378788694,0.014536730348134519
-87.88526693698114,40.27251689065471,0.7265053920747593
7.447559863793965,-41.93057582227333,0.9892933130344201
114.0437040730032,-195.63672945945046,0.41334013199556363
71.10433620374404,52.841678734386264,0.2932489181512852
36.22780020252849,-91.55348810451794,0.2575113869698553
36.95012144839632,-88.68287082769915,0.8483439343168879
-86.72465367938271,-28.92658515615564,0.640967675644403
-12.868882253702758,-25.65389635862329,0.023262849065148195
38.2127047099117,-99.21206942464774,0.8678989753749633
-165.24118456826304,126.10456260358596,0.4860531398151452
-14.2046971557125,-1.780463140568592,0.20116436373999425
59.33969136335578,354.28535777579344,0.9080830720312257
-162.4221415095458,-8.999366911745426,0.4084682097355592
112.0725920833648,23.748124202686842,0.1515878799823822
-76.74583905854507,19.165559322367812,0.2633276357292037
-32.49350408174251,149.23910273711013,0.21915979062446223
175.05843964306897,132.06806494878165,0.07968962826291026
-17.072959862587417,148.23188808425166,0.24144423866139153
50.64818931892459,-94.98961781412302,0.08786125659933697
58.44698806200237,-161.3725456795359,0.6107558472444248
-78.3669812726224,219.0716159308165,0.35146773731672454
93.11906671083791,-110.56165876745227,0.3396211439353113
-2.3507118222470016,19.39088687295909,0.44793105504800346
11.028644108686878,-81.24023098231939,0.6512336835621616
44.60483850015176,-187.04607196269606,0.8886796302678459
-41.85405992465092,-382.7963947295817,0.7446797198526796
-148.0961614728795,67.76458428574867,0.05004561944009556
-35.90568336276165,53.73465132919145,0.4003171612700879
-72.06713943175116,-98.33787164868156,0.751355759165475
69.6737158614712,-0.22021822470096147,0.8836285682203975
-80.06998784054076,-41.60159935328922,0.8176704129657698
-148.1989169222294,-94.98278095400681,0.07663299811142354
106.91506123691845,16.20490792682876,0.9468556445625179
58.314686215041455,-13.40815372013448,0.10517063211568534
21.56122947408059,97.44117642520564,0.046126343304272344
55.363200515181745,103.87256889966598,0.02665783165267943
158.3492377872274,10.664321650056818,0.7631110324462546
25.270175615362866,22.234244359924528,0.8717761033942824
-90.75103063886165,55.51794381851508,0.34979275260727594
55.95734221616071,-118.2777239380837,0.7380763002704124
-42.323963942139926,215.89174807756405,0.33370388528930317
-90.77976816729935,22.907222420249372,0.21303173156994637
73.83176843850026,102.6388934946399,0.44915919205344823
-112.23355870771148,151.068556969339,0.4918491156942987
2.53273759883436,36.64715299460907,0.5909746804341135
118.3619882174491,36.64861700677818,0.1462135333998933
-23.286215276554792,152.89590362145523,0.16845847250857293
-94.24691282325061,15.667495590344904,0.5177429123522174
-139.97079584656043,-39.73600251092879,0.24185618714197699
-160.4158141292654,-15.626248419642447,0.8783146041348489
171.92573669523517,158.89180701952108,0.7960849784185783
-72.77367598729715,-36.793708950603325,0.6763465363042833
-74.51883261192546,-87.116377783893,0.32194260596453406
137.45232301434848,87.64755272735525,0.7855223720600432
47.01547512488345,-101.19215543695215,0.23980030663248897
-2.4019801004674775,49.45930584813853,0.6247666768615561
-122.81266780667978,97.1601221620655,0.6965698675399593
-126.949686916327,86.46214302788474,0.4394448671805905
103.95546030861536,51.205330336995495,0.7628027038925262
-12.262290722878815,-95.38562837718979,0.959181986382973
21.341786096695326,-35.47947572051487,0.8415910855924869
-48.959730185820455,63.18956926842154,0.4992420076820112
-200.88719536714765,13.193299472862252,0.8097480096886068
-139.43420579159815,72.95547578486378,0.0055687304544731475
-117.1528883343297,94.64325661076133,0.6435080100231758
-76.3691727053596,-54.794139793557214,0.8958129656196951
61.69190159827815,-8.578271307369333,0.6206028903236738
40.005219583334636,-143.55344588000753,0.8792501603388261
-146.78940011159202,-192.2658046939592,0.6394784083007661
75.3913239556414,-91.81165830873826,0.49768348449570854
-149.12424836555022,-85.26340758581338,0.2356377619076564
41.664562791790935,-39.997544269892764,0.38118580246764056
143.50452515785645,-48.30380715386583,0.6384412016427655
-104.04131994403232,-168.71549832389647,0.401477502861704
-196.0684062504651,122.85343677967593,0.16001619646186027
-9.168019736615204,-43.230315218598186,0.49338590447344455
-172.8602643102414,-105.56192010924563,0.4982307504779083
-6.75447059568191,6.746561178924222,0.7088322575657025
187.18364088399505,-6.043001162281481,0.5306001001864911
-88.16113461201013,-25.907145006162015,0.07312838655268061
130.2660661034031,30.683782708887104,0.5159147280399068
-132.56433835772737,-36.965918699983376,0.2632670134858337
-156.76771290844073,2.5732684165328648,0.3084985580722237
-34.81654465672586,175.0758855775482,0.8633501415226064
13.267223387107247,45.86142819252866,0.1231177675809868
5.721360459669354,26.221334302001353,0.6834293705187834
158.80227357274197,8.779559307194527,0.4778521581268631
-96.71564609095195,-74.208150981128,0.3090789499498826
142.80024827308605,129.1890628577059,0.11458858411778516
36.16131633058311,293.11933049149263,0.16717322152030611
135.51893118916146,33.29500556801984,0.7421370333310786
-33.05150490539733,68.13346959580406,0.9365282605263712
67.25042706125319,88.40435331460775,0.2050704751531507
71.05734619169928,-52.85274499070086,0.2653253258479915
62.644797352827034,89.10934569421097,0.5009813024924975
-13.2935776393496,18.27547849744258,0.875747997942095
-83.87289335261391,-198.5658310011644,0.04532304863925718
-15.494283635087495,-151.24091052417114,0.9070703116395413
38.24322012496488,45.50275798931019,0.8574758893010109
-79.82097831122232,-69.56844260937186,0.22437330326353855
-80.25694985572855,132.18394387077785,0.2706422511083806
-23.297817464251573,-22.721578797768043,0.36872914685850056
-74.46264910247616,92.44175549441968,0.6829759429045636
175.83905589476146,-45.83139404580094,0.21490441546623718
97.3656201142656,-22.295160025862163,0.9617087454867299
-36.833766628574665,-66.15080179339512,0.7531581887260367
-196.9228336178051,47.9851811378519,0.3692845303007397
61.88122723852161,55.03552627548268,0.5047188368543868
-33.80881878250953,185.82025985405573,0.2718753250591802
11.258214222237285,36.78700408945567,0.7429526500198073
136.49753280636295,-19.69234682148917,0.11386074447139172
15.242276098908954,-87.03557367213793,0.6953565505803866
91.30488251680435,-142.40216271790936,0.303783421952031
-28.39538395077731,87.7836064756999,0.9748790502786142
48.10178780930698,88.64657871195263,0.87518409371462
147.7024590137265,4.160257475720416,0.39875397920589795
61.0586867779175,51.14322362838099,0.88517959011435
107.36571392026906,22.887473841414796,0.49069237243386987
92.64286291600429,-20.372642807693296,0.01981245872924975
66.41593642941149,-114.55864416385273,0.08030475308106744
-33.96737307366001,-99.4794629897875,0.05021842459799386
54.857652169637625,89.09605456985771,0.7649365952377382
-132.14724294507707,56.0794517310437,0.018735055870760964
115.87096356149127,104.72017491369496,0.7093422438540965
22.175646724785416,42.1778242070355,0.6050203763664106
3.194483672512633,155.16755081867245,0.6754263474766468
73.50035425081059,70.88336076057729,0.32274733539149614
55.50090545713997,64.67886171124508,0.6287987734991293
23.230100310981303,152.2592378235975,0.22072810532447296
-55.11054798752569,-87.58851942804475,0.06414299225266995
-97.98132047156074,-51.74488898743307,0.3600236671674324
177.7870301823351,-34.94712848006073,0.4964658691321605
73.76822549464177,-57.099130283999344,0.7430157959657907
101.59011474011538,-120.31082464127788,0.8200403226213325
157.13491493527073,-175.07856405722237,0.6010968594837109
-78.71976416656919,9.948394894187745,0.5899914447925847
-138.10615400391936,-146.2436070245348,0.7414633644939677
24.448733894125578,-116.3437777472823,0.7195783005526388
20.75334069309001,87.8023365978437,0.21906441360272888
76.16959404860792,-192.9291610862376,0.2785301861914531
1.4304983340330713,-72.9945698738828,0.7790904721564019
-149.4953464890662,92.63439040269915,0.5769256022422735
-17.487447691246373,50.45897186113777,0.9979338423967776
6.787542243501815,-71.89381277416913,0.5141814111119288
-108.40078523644566,-166.45255738503917,0.47287156003572317
-189.02026270683737,283.41171488581097,0.16849682915573216
8.823571488663976,-17.718374718137284,0.05263319056572735
-79.98501718915647,41.91046179957092,0.8940497225172431
170.7588467919997,-68.0377542715344,0.7001889110580667
-75.19843023503593,47.65000455192913,0.6766534763487428
63.546618079807985,-6.951273311315995,0.10525626413633404
-5.149851336723959,127.55710781469529,0.07003011435162232
176.24440855527402,54.02807008874384,0.5391285572847198
-92.48678673892928,190.41825180687994,0.3198446132538745
58.77776546342932,41.265646828108224,0.6380292731951257
-0.5399209923918982,118.93985231257777,0.5136608527313279
73.30074489652331,-243.32356872655788,0.34323266233611605
112.9809619667927,-36.403620278791905,0.15024325918590964
-42.90854066500941,-139.96305939389964,0.46714833340795037
44.21223028601206,92.48730210030641,0.7656825079178945
118.91254489605035,78.56260882163649,0.5946943789360254
86.17333678386117,-26.312789884371586,0.9379435070998917
-42.69083185034415,-28.442891850430673,0.6362831982282
-132.16455534955514,166.65102653581087,0.8284751914813886
-121.3177627549201,-141.078615423092,0.8247131784303926
98.96515791258182,-40.987967596023694,0.21611779998030445
-68.83583000273316,-139.1705730393341,0.9527882843388807
20.120940800990226,-24.367294441867703,0.7406315043106032
-59.83654561480157,65.72276215611485,0.23260024354479092
-205.58388907022373,5.8808946657896595,0.7314680570145405
131.22868465277645,185.18871667460652,0.06549592435980167
100.7585429647504,-95.0613954468883,0.40830929710557284
-97.9196749517542,19.756529170600782,0.5587092598987972
182.83037873149462,-47.21996489155461,0.8185220793814677
84.57499347236028,-147.4032269866243,0.698579402820729
24.9823686188515,46.23125566428242,0.9944494057640232
264.1932542482922,-45.23385518479243,0.7700519322385727
-50.860198687078594,53.1577967417427,0.21466285422918652
113.80229222384517,283.17281792864225,0.5282271014511319
-60.4184223944043,80.32150430870291,0.14977122043775237
34.822685610310366,75.63061111282484,0.37108474834014404
68.85696251021407,73.36186667514191,0.5410205730800504
126.45485583254134,-140.76241189696327,0.2634633760010022
35.316452171822654,-97.29550851654089,0.35284316247802805
-74.15579069440207,88.29129903674861,0.5284597730210607
-152.6489240206771,-2.1986549831950737,0.4842787337461796
-5.465281999937812,62.95933474567528,0.8783218839267117
94.10636216802106,63.9228289483287,0.31874184616510104
-71.86602953488037,-44.88667136228341,0.11343621589170216
-91.51112763982586,236.39253241979102,0.5953305919061305
-91.79180580806909,14.664909846260809,0.7697953769024517
13.375327105310827,69.30944428117718,0.03621514917602264
76.62474670630213,18.827831336785195,0.5425877974586258
-116.67087027438798,1.2944609541429628,0.4207401216750737
76.5987441370139,86.1032626849142,0.2778238864293512
41.9711218019858,-42.00923907905772,0.8770972610498592
-47.05671691841693,146.7603866727785,0.25363206631552504
51.602363820086964,-90.25644209705769,0.1765154243969077
113.02373907948542,-115.38781268170601,0.7818395381283484
-69.14340835689568,-133.36922784406408,0.7721775525386422
49.82106612053427,-39.995510782176,0.5738265767656746
-65.89601149381728,-60.59435086722377,0.6226970458206256
-77.16629428742061,164.37806755519804,0.8069078764483014
24.065903140808317,-9.263595052304845,0.13434675558743636
141.2300931014093,-41.892341628545864,0.3574414817607381
-4.825375645143951,34.22826550435027,0.23433682013872392
-37.802539195187535,-13.778004050105366,0.294112266346231
72.3864271747437,96.89493013439204,0.95041282033579
52.57709751116434,-36.13321668126499,0.143514200056154
8.846141576713672,-7.83111726878964,0.9041476850160652
45.140393712256575,-248.16120577963568,0.4693606514618699
-208.98437705643747,50.36256562484592,0.5173452745840986
55.57820604026106,-35.5582106800882,0.6223796764922772
86.31688301803646,-62.80832381294744,0.24926960385392227
80.22783074319968,-21.999162826268382,0.7922674115399088
-1.9086337480573696,-94.92519497123956,0.5532673984657179
57.20791868382311,-83.46116537251143,0.4888091815618941
67.06250779034083,24.3880396075949,0.42558794787560805
80.32176153622139,-30.461428575573628,0.18498457921255418
129.3753689856095,6.683926778843522,0.16171530428131098
-114.8001660411794,61.680521587499456,0.6386501031255732
53.87322356600131,253.1184048011978,0.840660396820864
-53.17450577452581,-36.10295761990493,0.6084814893613442
80.44811349821845,17.656914719867554,0.7838683936905885
32.694295872318264,7.618741363149533,0.7342856008785688
-121.52467829110148,49.22909093192255,0.356591086412526
-147.00392822527436,-25.349286550032367,0.1914481864585984
-44.48596054956451,-4.538888581465055,0.495008016730067
104.50465712934927,-66.30255497969442,0.49950958878941953
38.96275846030803,-44.12980300991696,0.9766926839371852
-1.028145704576614,51.38993830325762,0.06338478238691703
82.82600934822435,72.36321933456078,0.05666941058405328
111.24167387279826,-34.59880557942436,0.6565866128793314
-10.508133175900234,-183.51911292116458,0.5944355952180402
-64.45487797603839,-321.5793298165996,0.6615572089702146
-146.46646379962735,-26.718688371424598,0.9552662980151464
-65.59035749172214,76.95135732495372,0.4549810062377305
127.76253816519862,59.21959712313396,0.311720389152492
-175.8386387780392,38.920740152454556,0.8313008327275669
-49.517461601571526,-143.66219468998636,0.5736005652430313
-51.09159298300936,36.82127022777118,0.5278906480171999
174.44765439122187,-75.89474636080789,0.3737704382157273
-75.55088537704921,180.82328943549868,0.26770717092574114
-128.3457536593506,-46.05328874066469,0.6549039782855384
89.27643517386377,245.66906813140767,0.7150912314493417
-173.89551913983956,-30.442164421349936,0.37239597936154933
-178.79541836243996,-105.87158933316572,0.008927454446671867
212.45013087431178,-167.82465748833067,0.25431733238338994
-5.3107796825159115,94.58198883188035,0.8999903389949364
-151.7708635965295,-7.373737167561871,0.5524809958392721
90.420580520699,-15.449037358727432,0.6398949820656469
-15.607141090109044,22.470631495781557,0.02347796719144335
31.270236492250774,46.30118823167072,0.96996421910325
-133.4919444330776,0.7372196898687152,0.9285006610736727
16.458998703676507,-146.4276966750127,0.15973535940280958
-99.21341229616677,-0.9788259465476601,0.28850127734490294
87.76963781954264,-28.45468377072965,0.5750616903308742
74.21383077930798,31.23284113829225,0.14049415911711438
48.550433573126554,-53.55250068919693,0.2682785282810356
12.738865344528616,191.85888994268353,0.49370536164163215
84.26161872879531,-34.553495975134666,0.9215453858287961
43.90850138949102,-54.65736248256471,0.39205123418576215
131.4219382976177,15.097931685169339,0.4679451405101993
65.39223776192584,-24.99482925833283,0.3284030227776844
64.86781364437414,-55.55071507226381,0.7200630452381562
128.4838896103656,167.7641809259476,0.4419791839642745
-2.7330562550290325,117.24735643325725,0.9846091485687097
-137.751923841993,102.59265172455103,0.012582198601513883
134.90216364748673,-82.6674249586178,0.746478330745746
-62.09811008503906,40.05028247271652,0.2663484067863432
92.10027438549517,192.26527477377664,0.5310259917656452
93.77747463880814,-33.17321798626896,0.5543615526378716
-124.70058518575485,-46.89914139648552,0.9036298061257506
-144.1959902160191,70.08382892329367,0.38735554518006543
45.40794759397549,-58.6133104125538,0.2884800140845649
171.72462642552745,-132.61390935164493,0.45540540794417916
20.020830703620383,55.32113010712529,0.10849207000091265
-58.57478868380145,-30.30430716465815,0.23501291596001372
-138.21892337643587,174.03425431794878,0.5880070563100326
-5.7598461629802475,-1.04139131924061,0.04483517119032232
-150.3172143883934,73.4838481852635,0.2222978720483515
-141.04553565669983,39.90916355960323,0.981710620111902
29.62317643820019,27.472973759117377,0.10070014939857919
-269.77085043535845,215.54922628154952,0.2631375401983943
122.53138909628638,-0.9190931729764505,0.41504040237457795
-115.80145254514491,72.08475765268206,0.9528522731154665
38.71969906556282,84.34176797913523,0.7653736696874824
-105.70685035332217,-50.536244800671206,0.933463998344569
-50.61629160711642,165.43375711245284,0.5743705809617069
-164.49956850176844,56.77540340533127,0.7412061411406176
191.67415512106774,-1.3605097932383474,0.5786069574621614
139.669533898374,39.45841153784288,0.13312686274848906
-77.3868518154811,127.97760437485705,0.1907135345711587
-53.77735083200819,-79.6803594502981,0.017115620517893837
-73.53970839576033,80.61305089387264,0.9546965303769078
41.10623015822158,99.40259727364774,0.08259247098873301
-75.48286746090083,6.4754709061493125,0.9540892906960582
-130.68942359868302,14.009924998658013,0.0474673455302822
-45.97644788732039,116.93837044986755,0.9815047283961449
-13.46551532337695,-26.180710216617804,0.8572417309888041
10.438003898350786,-36.07963670480796,0.10090286609214971
86.84023967064488,40.53044962204275,0.5864106444430223
-102.08475481436945,157.66322338287802,0.7350854160211905
-91.23920109973402,118.09475696067943,0.3307818885702041
96.3963639380306,-91.64977654150779,0.9505621067780494
-94.74569302945693,8.637333258942686,0.7470435485957183
-17.292267926575754,43.89183604804254,0.31667430670704
-92.65359955700288,-3.9665991015910054,0.02645371722848433
19.599709970749558,82.83986214899876,0.3260697914198589
-124.06309755022684,-72.61882371980157,0.45893594445543073
100.47585710940538,-47.73784367225764,0.7825906144313235
-165.70311782027585,125.121655687029,0.5726611544491892
-85.52843332286444,-52.723644716899045,0.8876828481872443
6.515010287699523,6.284484811864822,0.5888732140839193
-9.672053516782047,6.630806008543839,0.4601689671331848
-171.17665446168763,-155.45353787327008,0.2101595523470806
29.729927154379155,-66.71951394105963,0.3411704814277967
-70.8887421348393,189.76205571587687,0.4243892513409665
123.81566938669077,-32.405058929922674,0.41857895055148553
93.99441360431213,96.92159349467968,0.4356649723474497
133.81977554639386,19.825704994037174,0.7481442873669207
-30.078833430082568,-59.54675063506557,0.7406106259410278
116.6624338385405,12.928787418786492,0.8578251896083661
29.164238159641197,59.06892150569432,0.1828362944564904
40.031827986325005,47.66162231346585,0.20876890231019807
-179.88373025165416,-90.79286006298088,0.5095681901709433
-35.85306965195114,-106.25184019622067,0.22819743436138729
-77.49835720732851,13.808378098235915,0.5281823962361831
86.31249228162952,3.1352118490659393,0.7314574178903803
59.12003308469742,-100.45361966633897,0.3426036855424134
15.0460092892924,40.117927927718476,0.6618096129427703
121.18849336654145,-55.70736269427579,0.8575755298391153
210.64189260027635,-35.257368686180776,0.09657408418962543
-96.85131947788985,-102.69114980146902,0.6269851788866345
22.081556916224564,62.82890310755551,0.22426831026764027
23.941746573674784,-38.028363818899294,0.240564415285216
48.86149827460146,-71.57794754339946,0.7976966039494462
75.66862151524339,21.04399601352454,0.41256246986946943
-113.85423667318449,-146.64027176234603,0.7521703535976517
21.66395711059088,-27.120162477490105,0.8710787621956159
-2.901150479480938,133.25442900541432,0.6158405887793058
-72.93706174710586,-82.56820156120644,0.6362656667925984
17.698880185845095,96.87220094753594,0.10208212822174012
131.93458072330387,74.47906571358072,0.10225180268195
13.459754016106826,-119.65452787996986,0.5581891008497627
-60.139419106898565,9.165991014711866,0.22086752974553703
95.61030330680893,19.303177919405268,0.4610627571789938
110.58824389411804,-97.05712351361446,0.9013977150089529
4.027054933855618,-18.662666497306493,0.3913326290924277
-12.440997050930525,-88.54752909519725,0.8590825292068682
81.41382087685601,58.81967988220909,0.6513302764429224
-127.32593164947279,-11.502948823462129,0.9277171212456156
106.06556560067963,-42.945232779779374,0.3668471623236713
40.619751157213095,-186.86724973398984,0.7637672413187666
60.31587876273411,-156.7662692121738,0.6344908369949243
19.815363714779313,35.28626087465114,0.7621382915936806
12.990256201108002,40.245917512539705,0.6081196953463918
-13.958498438549519,140.7797147308799,0.9721324146488491
-65.76968722981304,6.076998128827717,0.38660179480501944
175.95825279862007,-172.07333412443688,0.5396414778715624
36.75784628366442,-23.34948971505149,0.41772521387621186
-62.56725933527304,59.030738587857186,0.17699722370953574
104.31587833911044,-47.64591447779342,0.4817450380380941
-90.03356772985302,155.53253120182754,0.5125242511577914
3.322151445880974,169.52432437743352,0.41340215195084873
58.70242646354028,-14.574654016225882,0.9008206308979282
-97.01553366930953,-83.78138291974057,0.9717145180651786
-28.060096957521726,-164.29908475799263,0.06864306871930659
-116.65527195016219,-51.52197959900009,0.16959001378516358
44.54336359285775,123.78599913680723,0.43117056407404597
-135.91714305884753,-9.437416521993697,0.4187336213470001
-1.5192126100025893,-21.56691487992092,0.4158364598781962
34.76460238357704,-77.04592825813658,0.8264771431967226
-204.93264933961726,-58.10101834715095,0.7930643450780037
62.69931789110862,49.170405379491946,0.5879836109710861
69.9347190095659,21.42551246449154,0.9182929213236984
-47.46541387940281,-136.5038950058312,0.04131433735118217
-73.89535601429846,-71.88071806627812,0.5757670894847262
-0.3272295911791895,-26.223552931951637,0.13866824112135678
-64.08328082108639,-99.05765332291087,0.15466873517466706
-91.09168248829617,-11.726600511783593,0.856676616050136
2.233352872244062,79.44483024886016,0.2849996259944393
-19.76140946003677,31.420286219127476,0.13959035998456948
-53.24025408603031,3.7514979990864594,0.8662932511504545
81.72119132575229,116.25100485685655,0.5495800148600698
28.405455214820762,24.33530405729893,0.5023525488539652
61.78445089316883,65.69465396808684,0.4648871829982961
18.763714896338737,126.28601975392739,0.16571843742263648
126.22006086673085,79.00522924507798,0.526196339052094
-6.477459368680247,-58.282148912860066,0.35315173615105455
88.90865459115753,-278.850274900929,0.1687179416631327
89.39108470493969,-82.9126366072097,0.5262002663295753
158.16449270305438,99.76228673497917,0.6359440270187486
12.568971697358586,-64.35656461330356,0.47136801519762794
-71.5913591731549,15.785100847911945,0.45553327942095667
-72.08321416776153,210.92192733733205,0.8170990736551678
65.2822270050706,83.82642863936334,0.9521503563688403
-74.61203180824606,-103.29539992191916,0.4520829037505423
14.103474807860437,-151.81493640508873,0.8643635693274018
128.62078695114877,-14.09256851930451,0.6778225521463391
106.84349413547194,133.7846113711816,0.7033829841564946
145.52848772064328,-71.48366808175682,0.07000103887042874
294.23133834725087,-43.081060052118644,0.3155778210214033
-62.452980958962144,-12.34371119714639,0.5900187312437334
-8.300635740148337,81.53916579440205,0.2445668646941439
-60.9245328708007,-8.307024918736275,0.3050589167117136
-10.326796180330462,-42.06564427677477,0.02593498745072298
-85.78057692118331,-80.17322330318213,0.9487924600728345
-91.58175534715237,-26.61696223922483,0.01248973169094858
-134.42133035781154,189.87605893260508,0.5129905402179498
196.52027857287143,-51.22069033408131,0.6204001130385013
289.65326552271205,-84.07426035953259,0.714655514783238
72.98104918609538,144.1542194132415,0.07038336047913707
-31.138387541141178,-21.3098066756195,0.20854303059815127
109.31077258513344,-39.66488152839756,0.050029157948423664
-96.28574616932204,183.04670581294698,0.21407749559010847
-74.40231359036937,-28.568189977888142,0.044234452867280116
20.80692537662279,92.93533672432794,0.09395106342572757
35.250318138094244,95.56269977924373,0.16307283778114867
-11.010570376575764,-68.64958926319625,0.49071192347428005
-64.92570033546336,-41.01872176006798,0.14548891383769857
-98.79839337338832,86.70926455815872,0.4036820986960037
-37.561911259015176,70.34477542630758,0.7747188317730597
-20.182991704160383,-93.81294626041561,0.2181659674422567
-21.47719698867616,-152.52995344212124,0.6905452621922507
-82.81685285455673,-144.45635933395704,0.17477148425712152
-13.574086808160349,53.18356276171996,0.7324408193205961
-159.8684719131002,159.3358512703176,0.1235066748618816
143.2617062788726,-50.43149243453199,0.20807024371592808
71.29564218225167,78.57526373196883,0.8242890471805165
33.252224212809935,21.652154046031296,0.8592323561827055
-65.75055248369198,22.546098023239228,0.8146303478798044
38.235821965395004,6.870496332858327,0.9742616815104824
14.219279908564673,-49.12300210410279,0.47045734417804197
109.74545530645233,-106.24545987642726,0.8164150575575702
7.659688577454152,-89.71026740056054,0.9468653921800739
101.29362032865627,121.33603898560364,0.2681573853007878
-170.41648534560093,-1.4469733824837052,0.23091797933200597
-252.44145994782596,102.04633238517862,0.9176617297889277
79.8702748013143,109.26882837983538,0.36569790760637577
27.58444478508273,26.10519525393733,0.9146792419213385
129.67878503944178,-260.4723706879434,0.2280755029377397
-9.145342777971187,-46.05555884341831,0.9987569482867542
35.243986772653294,84.17399422970313,0.9936934378618083
64.540976173992,74.83759656043007,0.8957955305108117
-44.678254190513094,27.600482839691328,0.4405081747826115
187.51666033718968,40.02889002315637,0.8457283662268208
15.583782462098398,-0.9804948431414384,0.15257684298385366
81.2886957629248,142.50286187254648,0.6260750977524581
31.129556638606882,-4.258638939843252,0.24083772633427258
-34.99436273147733,-35.16298567685589,0.26230336962889667
30.80520786846787,-28.8318375885304,0.8015626894205944
84.50363001093538,-60.73631424338589,0.6157399306703175
-25.11007939348937,-68.55272099980544,0.9499284175236572
84.52924307128971,-104.39702644237944,0.8209842777618812
-294.8052920254935,96.95821120270077,0.9223674993668294
64.93837527074194,-77.20853266136362,0.2792100617333293
-18.961042979784423,-6.01851907738683,0.7142196786749577
-63.035602792739155,-61.57478457718392,0.25713341867663764
-150.22514179179962,38.414381211449125,0.12402648974659036
53.19062648107317,60.76494138307959,0.8452778036582099
-77.82306777124239,-11.5587735997193,0.6618616578100299
68.61126402923097,158.35282207860723,0.9691997998162737
-9.954601310668751,48.75096513789024,0.5923171686235655
32.002226528800286,-92.909274499173,0.5203812341797782
-55.3018188280027,-184.9634490595003,0.05382337382565272
-31.166955244568978,47.481696867376826,0.7246674370791126
15.921611869353528,31.762622703946576,0.07006253140608398
-35.28705971617975,-125.92303840214613,0.03852179583846749
97.72016203805252,210.41555010790822,0.13260266682636346
79.73095739768613,-122.51819804526735,0.10167764891273157
-88.61176886164337,9.567223127565203,0.20396467874813962
33.77930563165184,-140.9206785756056,0.9817289757288955
86.8211743948776,-293.4694622792259,0.12710086420187183
-226.44884976258513,-134.04884225523918,0.37711213213901185
39.649447329440015,-35.65866670259818,0.251226484906084
82.09996304245556,3.31352149140035,0.11084050277697288
-4.8122623408855505,-2.5972789249039363,0.20856115088194405
136.0531733213274,-84.33317177162435,0.3212156467965742
-24.60462685951397,33.288906766910166,0.4374360710560581
-9.80741397596877,78.43211553100797,0.7457855280503347
152.42103655777217,166.54612200715468,0.5236127597604356
-113.1684821352467,23.785951279489115,0.0498634421825388
106.03378723338292,96.87754005084696,0.7684423671633138
-154.03428451933812,-64.03789779267328,0.7149240636473126
-105.36209414879967,75.26422837378249,0.4992164685731165
-109.0897158977064,176.14289973288157,0.9169929283869802
82.89233637526429,-45.41020223069736,0.3904689804085164
25.610726291362607,-99.59938553848365,0.8557076584043232
-81.27513872285029,-18.13730142646222,0.1615727274424008
-134.86283254070688,106.34164566192482,0.7472796197306066
-74.85008242313768,-96.25722713132416,0.2195698502145237
-98.75936333162993,49.424021830052595,0.7070410286082498
77.7916525026366,19.21971548154898,0.43372369275897016
40.3404680878335,133.522979560368,0.0877944491768261
248.47985842515743,-54.11847240032931,0.9149875785888799
-116.87480150616834,27.02791683134562,0.7136270629076124
-20.35302082034561,-114.50506111919489,0.4917852295639088
108.91783819197694,-70.32988005122782,0.3059298284557983
-84.3026647215913,140.4063635215857,0.5733715005240088
113.23154056613922,-46.68183484600215,0.5194179305630122
-85.52797984846863,24.265372015405646,0.379784256081541
-40.708016271086336,-57.87881205428754,0.0906135697600764
-52.39803513653711,150.8646281536494,0.1900935038507393
-226.57538479805766,86.23357974180558,0.3678762385545027
66.10302685824907,-154.93455701550332,0.24888667060398362
-65.34547097646299,154.3400787326505,0.19600416272986443
-81.38362430410197,123.63773442033461,0.16343072042485995
95.86035948013414,61.86059668916959,0.735418154122769
-53.133467068801906,62.96656366797375,0.45791158987751013
28.00726408454054,54.69756196722766,0.7835959186285251
-101.51143979045574,-96.18048799228877,0.9936806373079993
127.7616222928539,-27.36737496623028,0.3568989624369745
-84.94289619882895,64.48922593996235,0.11250142494006432
-48.351428953659486,11.890118768354366,0.09597635014167394
87.10359968354537,51.87118628137674,0.8929041796816143
80.40700838691683,-109.06355717013992,0.30928048648110174
-61.05907324504789,-57.66273932476622,0.8506144390256604
-44.80815642893802,-36.083714791822445,0.20282337627622526
-73.0313319356218,83.22161280850129,0.2602503525649488
101.98546388259027,32.13014851825621,0.5650523432247787
55.92932400006572,25.76328083826846,0.23353322317998548
96.27338217604284,35.70668919939951,0.12844872187361456
298.70111620568116,153.68637874378473,0.3509145943056817
110.13602709098865,196.35010153860884,0.14108459622703629
-48.32145005461589,196.6327206992608,0.4021011354501367
-52.02587937580162,43.4977445330994,0.4417216786382645
-17.48129365080395,106.52108959522329,0.042809873970908185
-38.642757305298936,197.60279684454787,0.5475426856952279
8.804198320198612,-22.546143725660663,0.2245325391657922
-54.38569779967527,69.51580544767467,0.568819511318097
-84.68655674607598,12.297239862417037,0.7878906304941388
-93.05078537175038,-26.403141514033067,0.8271561842269964
-92.52663600135705,-75.36110268526203,0.681227005151389
124.56032192746736,42.103997916175516,0.6675538543995749
93.34160952543559,-62.47107244361859,0.34979052974258085
-100.69047667582186,-114.1736651702279,0.26055981131720685
8.071515939425,-44.11540820232131,0.027424796390223216
52.54260999170276,-141.61347002802546,0.9723321238768952
110.51088121779455,114.25653763712695,0.7632061928070004
-2.061164146955042,71.82262567063414,0.8763169030679966
191.61545888720678,57.73446949980446,0.24763025602398703
-80.8781215812728,-37.78234324842148,0.6490364268824875
-50.27065398560951,-5.642803152391845,0.3494157442685528
-69.10756516471663,45.36446694545058,0.21478792449307282
-167.0445827640337,-55.9138773572674,0.4209893445872732
201.30565748320518,40.130964942892625,0.5014260143408434
-93.97468816572979,41.30287694008924,0.5195057262965492
-102.71942535328864,-110.79697204891963,0.013290215905512048
-57.111403465381585,88.39596983479495,0.3326092609852562
-37.27574488603882,-21.694969375456314,0.9888897933467686
109.53544894885559,-53.08175723473584,0.6559865280471731
99.42529298122483,-91.69234001046573,0.7212024929213043
-32.668902832207614,75.99722765909466,0.09428312499146096
9.231476248328176,-168.098049197022,0.8263809735960783
213.33692939963456,-28.655933799187338,0.8048066620117662
49.570861691099275,-79.91550403213049,0.6103603461537848
-38.35449146072868,117.49716268268911,0.6167946911935029
-97.99662543194074,176.66340217103837,0.5369007426948517
-28.679335578209496,-98.77670928454572,0.06704826002200825
86.37170062846224,98.70046291621924,0.03459113151600102
28.038661237335916,-109.74707773882126,0.6715220534047814
-68.77018692043222,170.94233587965022,0.9596552410807304
96.98826850813948,-98.8573634501855,0.5815929006612351
-23.85466907443609,105.02003388855582,0.6244524451804806
-37.74652482025523,-59.42733543688181,0.04628332384108913
-41.520783777734636,-113.2903887231151,0.8724191413868116
44.77796188801797,120.12775444884302,0.4701044560934533
-75.69884003193071,106.04156131043968,0.06071994868582453
-65.97668174694562,25.400217924298552,0.9957502485915453
-102.0956990784579,91.90659924198451,0.0978285550591318
231.99701563205127,111.02897489771625,0.9359988856285995
163.82128175000955,-51.37070770247687,0.5303572714809576
25.466619770926286,-105.56925891011706,0.9617080908165175
-57.883055084650145,-9.821208772117291,0.48711849864702605
-82.45968185703548,-26.489158061093054,0.8610525699231296
-76.82986599889574,44.011079182980275,0.5621346971985111
64.69301606379972,90.83712102967507,0.8019134846525444
-16.83264124436816,19.84747589640953,0.11985369676746627
-41.490604059160766,-111.0895383090583,0.7958860090283064
-6.1913920365925925,-5.198947950119878,0.05476520517887862
-79.05636051400974,-4.722418140765669,0.04076535605917242
-50.00774014571889,-25.59397014266504,0.9900734754512904
-244.97992518605133,51.78289158444027,0.5242429604560197
-46.0727838851779,-1.7950105023677623,0.5691840601294182
-45.96384464349064,-58.063970244114216,0.9272735126566856
-3.227920756627236,-314.13525753716624,0.16517964561004506
-43.05436869435179,49.48228694298481,0.4857083617666278
51.73083404582116,6.501623940338145,0.722904958557846
85.66096063056942,-22.47721034264033,0.2980783808428513
-32.55344134123367,-128.35191636202597,0.5274370072056871
186.10802641303152,26.562183148182005,0.6464769023276352
37.11481689819131,192.05702357417144,0.7703572051449235
-129.58186734334012,67.45046257799454,0.08237885707339221
67.7954572689943,-177.99076885457188,0.6005703219270159
70.7115741678254,78.93290342550617,0.3854479439991283
-31.510746605193834,6.718116004322261,0.872459614560009
-34.1590591443823,120.41995828959521,0.6892027278850253
70.37851633685388,241.9686619256456,0.27040502152134294
305.97944020826475,113.29330604406107,0.06784102515911705
-20.21429774649863,-89.3213712287136,0.731565867475276
-85.58035139714906,-98.99041919001952,0.8799568826372585
24.776991660405336,-10.800994240877596,0.12317159640410547
-14.721220831103448,-46.03534185063132,0.5924041863719133
-130.1915451485462,22.151007608572606,0.5620537992211742
46.02549251193953,-110.91925051116047,0.7844209434323235
-77.26233011653306,96.56105314898345,0.19040882150317984
-10.919505688904215,-26.661649715331542,0.8517593466004064
-12.852144893934565,144.2285903656094,0.3412262882838929
24.110243137340884,-122.70973883241089,0.2624330058947282
65.138364690147,-45.72289756181139,0.297797292959469
51.32783409105093,114.14350639898517,0.560290358432023
-72.09076997038696,-77.67414333903409,0.11413464230049275
123.93904439824468,-58.26666946911105,0.9536718211567472
9.837255285432404,68.68526755929501,0.01017272243080014
13.600270312147856,66.68325004291354,0.36405264164351414
29.059040580597106,-76.9636184863613,0.7375635936913952
-24.313709156671642,109.7834990655165,0.9953827310604823
32.17566201685771,-49.89524038542772,0.9166201324102323
-45.90418564427359,8.347236472523717,0.8663124839190839
154.20885365816505,59.25020009650452,0.6160383845308307
227.94821480375535,4.678254038616251,0.5879632600686965
114.99169196946441,20.03620823788973,0.7258736753231143
-91.03323828881284,-12.561854177119084,0.5185380969270349
17.827113726218744,49.172935416678285,0.6789629339889347
133.11292695756785,52.07857814209477,0.25004568560883544
187.7017338586516,-75.60973433758127,0.6903882882734432
119.36421943334065,-217.55884001812814,0.00872449293397426
-131.2941905674712,18.2846001251571,0.9246591545502633
55.03737053237734,-61.18403289536658,0.0022258863579348587
180.90788166006885,75.20419960436013,0.6835107526349952
62.41943548667715,-46.49631336023003,0.2869581705967481
57.484899362096996,-45.61846207903271,0.6679956428182307
16.707307929457862,42.415961282190736,0.24875775929189536
-43.737404782301155,8.81748510106755,0.6240739554501078
27.999187774019145,-22.8599710808689,0.12302073665347457
-38.52096048769219,-137.9679693608579,0.47585572188615455
-132.852868126352,-158.269531871168,0.38840007206899685
-50.64057662195848,102.71180566250713,0.24507757611591552
-94.58830269553421,60.9653025716152,0.020055205720188263
43.40144196715825,21.517697405476145,0.09374335404487333
53.18705221255979,248.4520197849684,0.5464902724333053
20.050580245575585,-98.21225624770821,0.7411294411126054
-39.25077560978059,19.756451047521463,0.2986428538806092
-74.9846066819162,26.933299359256303,0.6278812834235219
33.1519796646237,-267.9902634607252,0.6547343273915566
-5.3747474789857,-19.61195469604253,0.24241785178614994
-216.66225492692215,22.923922957967132,0.042772778997170136
53.434053651911086,-66.46494543002399,0.051169120898246656
-23.148711622775007,175.2674197529305,0.2349123911450539
-209.8665306962836,-113.7789406858739,0.7879033505345897
105.52480257044212,-33.26099427532723,0.4719557077300437
115.01765609706905,176.07878221890775,0.9147484034282047
41.35861456058037,-99.31914079551798,0.4791622460416024
-9.938196396114666,99.83665103312828,0.4964328221727865
-56.75495826489119,-130.861900174153,0.6823154300486819
-155.7458027684349,144.4328110602457,0.14269837088431636
8.506824826206572,-76.73223424231867,0.5230566888423731
52.92775548793131,37.62160625095851,0.9518980882216516
42.14744530578674,109.02243355340448,0.5948406603142495
-88.54517868938936,82.11730148398564,0.4985774486711554
62.74741501978117,123.66569381942985,0.6029299701048569
57.966586514356145,-9.953318433353083,0.2475662310629273
163.80970293751457,53.344579191875695,0.22111990779039437
-30.530726707431317,85.92703783380522,0.9215671800335501
-44.81165772830868,-216.24687737173235,0.2007194664536479
77.04398727350758,37.8647607996424,0.7147699157394973
-146.43284905432225,-41.89802915434173,0.7394216333924551
-7.857095428919503,97.16558056402073,0.8283324527579262
111.83937566320108,-76.68256384803132,0.10100822875074489
-103.97808433801094,74.40022734281003,0.8488053292975348
100.24731565120115,-257.36944445076455,0.1638478487944528
-49.648858881842436,111.40663928568787,0.9427610794958379
-26.55395590913381,142.97031913933003,0.2649040475836417
-56.3051828563792,118.14550503134132,0.12306678601415644
-87.09415929385239,-64.71724979236467,0.1604902914461982
226.33997436520468,49.084518532258855,0.5818143010775506
125.65717941186674,-57.70493779711162,0.02571421038567412
122.36353205796115,154.28022372782308,0.9630627894474627
101.49266058761717,-23.032601787891405,0.9871772423014031
15.64507386481329,-36.34635972708589,0.0789892456722644
-15.982476531400083,-75.5764076057677,0.10867890055380613
47.42888669788977,-105.46494711651384,0.16645929307349272
31.822955282136846,28.7254719601992,0.14584162410118118
125.23288317168442,-57.764431545465314,0.9983910027086915
-99.5299387866458,-170.21641703222835,0.8444505571528844
34.15676290127415,39.33551247867853,0.004678556324491545
56.129333144724846,75.11437448589416,0.8093998368090847
-106.10360101852343,-116.17387600001301,0.024465180294969247
-67.08330928213712,63.43241587247106,0.7342225416442169
-101.97338190117493,-100.38904503027304,0.3924877321945016
18.383430191894078,-130.4480644070233,0.3409064305099033
-114.06738047099569,52.773267793623035,0.30059902176878783
-284.0933835217124,-26.706632622572435,0.02007344346944895
46.02406360892491,125.40759254640277,0.9088617016435081
33.29260205635421,30.08318117827479,0.5563546320443516
-14.730235194328605,79.7235664750339,0.3114034205843108
-147.67705937428707,-31.545167778887016,0.49448752826881315
6.804754902596135,-24.716097805803678,0.7012383304350676
67.52200080862039,15.437385719578858,0.5232138442944988
-127.45736853249518,97.00671223676366,0.04453980935049351
64.02628544462468,0.456266650239996,0.6132174572029953
-10.476808934743886,102.35373203349629,0.3478743080138862
-201.45969187588005,-95.8851714802346,0.2823447723082775
-253.0463799553149,-97.05460758055409,0.5097957199127333
-36.31029662574355,97.25886094133949,0.22803907992390882
62.631408105892106,40.01262866025957,0.24401684165743465
150.42648785175467,52.83293707830546,0.4608620653447285
125.3265993571163,-229.611207764244,0.3186416822218918
76.29748391632828,67.04941609312644,0.3210433186915994
49.53958942014488,-17.241304964177726,0.9731461461281367
5.054547561901144,-29.40399163322646,0.20431165296936793
42.35867417602978,-34.98246659974138,0.11799415083030229
-160.09908525514942,221.21784919398263,0.3301818325815572
-8.379605893546525,-106.35067367437728,0.4364209700023187
64.8474900950097,100.08878594409482,0.916918614634047
-73.0097244059472,162.1454050874776,0.3214354402110492
41.93177307191783,65.36923387811774,0.9584724479804694
36.52528494307311,-120.75245041682146,0.8378609510435719
-7.457556731375208,-112.60772398747847,0.24747229523233405
10.47149621705274,-21.90051709042797,0.7056748582133666
118.24334223345106,28.608730944650222,0.5886293173270236
4.537245144388271,25.274928226992472,0.9422270784104912
-88.84323229573805,-61.621439662081414,0.907297959677416
-80.63371238723262,-30.561919247787863,0.946775372863099
-30.7156180314463,53.97973138666633,0.35453977513049373
17.023204998610712,-152.72998566102126,0.9535342889218213
-129.7182256519369,-164.57157355082384,0.40095930030155746
-84.66913214007393,21.228578282150593,0.8688012141984167
-116.76389763721531,67.16695598274258,0.7118917597435561
67.28189203623118,95.03501853513694,0.12089523882285691
227.07547696748443,-2.039550379051199,0.2137001649234137
71.04975037715539,-86.88797977886831,0.5209719478383826
15.198310981473927,99.87809485132922,0.4434606687657827
58.31186182302108,318.4637861239016,0.41137519366250386
-168.51358307352442,109.27938697038249,0.0386090397754818
3.645212367896826,-165.79846078437717,0.3424153775028608
136.27934696018875,196.20586387699112,0.2736855237634005
