5.26154791808066,131.87088775041124,-9.429508735090481
-1.2946871455589648,55.87759970808743,2.03637440602938
-2.8043294618227184,30.94571519968079,0.443531712707977
-0.2805816920189677,125.5058912297094,-0.645568994990004
-1.720516086520319,70.71376711687292,9.090260765234573
13.410264298020234,46.342201285929406,-10.211134829683843
5.996489654779171,38.20120074401605,-3.138356418991202
-0.6659760146284028,5.465112833376162,-0.2430376472568011
6.578111298226592,166.77681168433583,11.279724384211047
-0.7541099680958108,72.09129458804739,-3.9942721577352756
4.6368322610250425,116.97031795589233,17.17926675826073
-3.5992915710690445,0.6154699279318443,-0.48535750650083787
14.716800160031529,31.237396936578055,5.9752847878435835
-9.124024826002502,118.16520522218481,-17.233860271927117
0.17566513570524017,76.59593927166077,0.1549167996652348
-6.903439720195612,61.722074692423526,9.522474383934682
-1.7882504912264672,135.8414057875615,15.394586036492468
-8.471071278101315,106.67534377140765,11.559003815262255
10.195637796567452,49.780078869653856,-13.91454427820154
3.5400857822116345,78.47949087161177,1.444922110374727
2.002089984244151,54.809090931269736,17.765410018601134
10.60335875191116,77.5555723753907,3.3909480864928883
3.1905551782510964,178.86879852937358,-8.190174004219656
5.259948121866308,198.1687893943439,4.71688685610923
-10.754808462101607,15.272242150162807,12.955167846712014
-13.487195328204733,11.934833132619627,-1.9354477528553686
5.089339005200247,50.99131817358129,-1.455849127081441
2.4242428927527895,9.31551485137765,13.319654881857431
-1.8377999696276976,29.184865512907887,8.715875446581135
-4.494358997597175,148.54506388239938,-5.8399233313546235
-6.731762063371005,127.88665845171143,17.149462894308087
-4.683993899617262,0.829380539676805,-0.2453183090443916
-2.8529582809019742,14.103193633919231,10.903538893402683
-9.704707779965792,95.0948180485752,-10.062836693188453
-3.9812329213903332,90.61950599854075,0.9365913714991122
-0.06239510770688424,134.51502258694578,0.076189379557752
-14.351908156037167,107.62010009131811,0.12237591230746035
-18.19205343539122,95.69015359325941,3.6173903743393367
-2.4014397799093588,177.06302186170717,2.753795168452737
5.853725620313727,81.91448879914537,-11.227187065832927
-0.07563961815449875,43.71920244595031,8.812428025512462
-2.330356386274937,138.51945793219497,-19.633308601132804
10.994081067988546,178.04010396871493,16.40800529377164
-0.16687802429024254,197.32227178846696,14.217303961670504
-1.4875963698408148,144.8157596119774,-5.925421327953743
3.632122549324422,98.21886710150774,-0.8428910753013178
7.043572710134898,175.8007475551374,3.847035258356437
-9.701736854542762,106.83360079409117,-3.227877794528063
0.011142924103988951,34.20178894995474,4.314106958988119
4.642368293014976,77.00487227448592,1.1517849505105353
15.068481012613011,34.11326806281267,-0.8211848579588518
-9.469018848061257,46.76315832571933,2.30315548059349
2.1517592136014483,145.12141319972088,-1.2562211877650327
1.9910007824213176,148.37157435642976,-1.427248210466085
-3.1909535210887605,83.26037799417337,4.192299717423787
-11.962058216038482,198.56604753198317,1.6902442391060086
13.089758965702135,186.91728921507183,-8.044721197141618
-13.285723971309618,172.89237681848573,-9.464713770108263
2.5930369604207253,174.85695941503778,0.10194387645488094
4.484648187740283,135.0783292211679,12.034542269580685
-7.958670231447989,122.72990670412463,0.9089110210456844
-3.6736870475815246,167.83193811734407,19.181206279038125
-6.937984560958121,15.560909560725156,11.682033938634245
0.46206146013363436,17.500201649157287,11.92595530314084
-17.77543888606318,20.320034937210508,-3.3685191312844354
13.210260316640554,90.63186131077721,-0.6751342072018677
8.162672930031418,142.88253724077674,17.370575938365022
-1.7226634094372524,79.33878285100067,0.9286632649721818
-0.0242593934052409,123.57675037095956,1.2670093094865111
1.7085718896619024,95.63939238371393,-11.256267086339749
-11.83089032328291,80.86829314160336,-5.516772273714182
-3.075512291432253,162.45940857080305,-3.4981574411361818
-2.9322890199885294,151.012383417109,-5.867330121736659
1.195820109325616,119.5906941775293,0.6757997599498413
-2.5254937589272073,27.540933193775928,5.617523551929772
-1.9441473986425695,195.69688050151427,11.37484298006397
1.5006396539511013,185.15132678204856,-2.265364675767206
0.21522191226078358,36.99699313021085,-7.051016700327153
5.7729964559238365,131.0272134814656,9.717801464015327
-0.15913128863255638,167.10947135849045,-19.504146532565027
-9.047257253410036,82.43865023525518,1.9579340878157754
-0.8706921995373916,178.33071336647436,0.04740224739008093
-5.426932236338712,147.77573686875584,-2.2943300739561017
3.5153467710020925,134.99783712328843,3.1670496452266277
-0.451001379743381,117.92620106134272,7.140589681685767
-13.830151173722372,164.967511381531,-1.1118840336733549
-5.110523401617963,84.79149971781865,4.912898566008382
-0.5637343121648499,43.28527256754815,6.358456432776639
15.060324432055333,144.1419615236009,6.823863073710126
-13.937433974788307,122.08198576845228,5.122651430285858
-4.373448671750141,65.11992153702492,-0.35410144249178166
-7.26956963623139,179.23005028666057,6.098212731881311
-12.113214719341414,5.067808146805319,7.124747135081648
-14.58522264550718,154.63786385712186,-6.01011028883576
2.7199295245656834,89.3604095670214,4.0647275306098845
10.185755322124495,101.03013210883137,-4.695332445533779
7.265186535143122,29.285417995076223,-11.843196428277567
-8.970208536923622,99.67411863497992,-12.95616645545641
-1.8607402260839592,85.50018247277553,5.42156113505078
1.815493270677123,91.33306470127245,-0.06578928097154854
-0.31979386745117466,141.50084656463838,-2.0748479750883417
15.372468234819598,144.26504600686826,10.648242014101593
0.32662896389507623,69.8754187733291,-0.10407827973016433
7.380423987494564,91.68634850792694,-14.821606147873972
6.856714088056152,152.55953947365822,-0.32532535121698936
11.671240147023733,100.58349284898624,-12.07834318469358
-0.6532672930815203,164.19813335361184,1.7137260188456436
8.3338818235743,110.48858089071723,9.583582025241538
-14.999391556582928,79.36362467209399,-1.4912090519000623
-2.1696041099962886,171.58399482388438,-15.362168958934056
13.427889022592318,151.9794134770432,-9.092114252227363
12.007928130082691,165.81683533264064,8.741977491017815
-0.8356968338044619,72.1061371441509,-4.386480919586485
-10.658295533932293,19.390928277312945,7.265365647172314
-4.567093617271639,162.71511712982965,-5.069066138613466
-7.4153306931648615,93.06867282861417,9.10925573873809
-17.74414833669835,195.8001056645776,4.034192718989522
7.673544292395644,41.60350648005788,9.234110490766408
11.356005964824929,73.72200627167472,-4.730329220614028
3.9882510352978153,120.74359377054962,5.2355106121710495
15.329159658475259,123.67128485736099,9.112193181627637
-7.241177943943652,6.545878397477134,-4.784590881547128
-0.35270659898408435,172.80788403597518,11.690182928698688
11.252950640451948,150.56599819073426,0.08111248477685758
0.17970853991184849,95.02756436164512,5.187799550932831
4.358919054089072,107.71786425357375,12.66437057187968
-1.6655158120964635,59.31314404578676,-1.8770292203935333
3.99666750906868,50.780072068203275,2.1475034766563255
5.228103256500209,178.30910496125497,0.8684707762413286
-4.136416396070571,181.24158143468705,1.3021658463647237
0.8931898884926112,198.77788810810165,0.2123821284549111
-7.220643818237681,11.935833842263111,1.6779453598220868
13.822049622899932,79.61558801780622,6.8945612542121175
19.2869630558697,13.625376409681223,-0.14496480714928656
10.89330330762571,125.50332308569428,-3.9131939675414538
-7.9142621671707145,187.36397692202928,16.9215809430068
16.775957475204347,4.42245420011198,1.0667108710166533
-5.7262846451614795,173.27032748951683,9.820026577068834
-0.6917089705222462,53.508843747805514,-1.5899721403902332
-0.7326895125786672,94.33524734955296,-6.59143304928835
-5.185628076449851,195.32993774615358,-10.183770966715208
-3.7577918088469113,13.0806556256988,11.103958656413823
-1.7187410076287637,140.08974703077914,1.1584962950268294
1.2558639339500155,48.98752678173282,-0.0822068961813724
2.4585829853547465,69.56823791836784,8.454874107429713
-14.032464878874825,3.1502144948590383,-9.75292062498714
-11.569920940585545,168.0139344987913,-4.512689004179813
2.711212545017407,28.712538474828932,8.775164609619095
-0.639851253721774,94.07567015782176,0.8460947245041789
-11.580143788504277,153.36994061446256,16.274104891439517
2.228107238556623,166.9659148616967,-13.961050981872777
3.023696386389962,188.97604209720714,-2.0283150294890198
-6.360501953129444,134.08218223504375,7.565789828111944
-3.12011387107157,132.43925478007077,-2.651319693256699
3.175499934386637,113.35449030737898,-5.983308797199063
-10.37688900713259,190.42239912028134,7.259170962938402
-7.18542089826733,46.645561564189265,6.4014330591082675
13.637602902743845,67.36630833382036,5.507607319426452
3.0561904605440535,44.78157325391305,-1.0250420715005426
1.06276294713104,151.21484285174284,0.4009223998317317
-2.6842372377379906,81.38950317062006,-12.715138561060627
-11.409894564496039,119.86852726594061,-13.633008991881333
-2.9252170473149373,99.37314242953835,-2.6291000573345245
-3.0138166860434885,33.144182333497916,3.170020126605726
-16.475107202127592,117.18110315593016,2.473157940793494
8.70127208804662,82.91615865848736,-6.305306044776103
-0.6498062972716944,4.381690037704811,3.156329576849343
-6.489824603285536,70.94795701783119,-13.283942847141944
4.236129536823247,0.11413891014746547,-6.492537092621736
-3.1678476353995855,93.48796153928637,-19.085729355132376
2.6252775875896903,144.01582927053246,17.396074427005257
5.338140300210856,116.04784719691624,-0.7273223221838115
-10.49997315607272,25.29601335151841,10.64029706883574
1.8089250963262222,82.26990391478188,-18.761958469883915
-0.37520682625349616,31.182849705263994,0.0836133314596261
4.684985014018914,18.68718652492447,-0.9494148939876897
-2.1981834737890718,138.6146989551975,-12.904965728090646
-8.33634610042572,160.61011882325417,-17.643178351214416
-8.402234976024387,103.11142336000574,-8.181687487703075
-16.20348520104111,21.728686949445496,-8.779618038173481
0.5936129940280449,57.9863712876616,13.076868890023379
4.129865594642066,21.671263689741416,1.8175313636558157
3.8412282849378827,35.80964768083068,-0.44954671278473324
4.08743403624686,62.289233005123215,5.416386484788902
3.902873856224424,90.97930436907116,-8.36577704011417
2.7288177503882554,134.9906273286532,2.3016126441683773
1.1020570342003828,167.8612231628214,-0.6802854106307439
-5.449103138357909,173.12588858093946,2.093672805417744
-1.3031118547701819,43.17786398219805,-1.248676794316293
-16.922400836031823,117.51365623878944,-0.3554864369956651
2.9638117552507155,141.00583022594674,-1.9545345732476065
-0.8545927812328582,146.50246794150817,11.569545285009582
2.266809388204697,9.916202812900288,18.38551087709516
-5.429312113230872,142.03217144145142,-4.40237212186339
2.7854517736129845,144.19476546420216,0.8067030629881813
5.838514973604351,109.12183997703397,-2.3641238150114536
7.366364945193404,154.08892996841138,0.9039895700613559
11.067630995482547,70.2375421139411,-6.518660184414018
1.7135234255980392,159.92656732266013,1.6352840999809106
19.846559160444993,78.87489653557307,-0.15173576927795787
-14.802790339033887,73.05359999585315,-4.516387795252983
14.100107923854447,128.5968208934065,-6.202635659967712
-1.7996371268974345,41.26060601286676,-7.151257609655705
-8.702099318298936,129.38290574407077,6.546953206682147
5.045645444182389,145.29001516020128,-1.240885864547734
1.8189462182732288,101.06462156824011,0.5178188885292629
-0.514189510143393,152.9430161828105,-6.618931928797527
-2.1645306690566937,83.48115977833406,0.46990059329874984
-6.170494072262585,63.856869226609334,-9.853737873962059
0.7463765558359823,195.7144611955456,12.882522827366362
4.260109362582232,112.32475833849513,-8.602342717204463
8.906311951321607,199.5117383571678,7.840011961506774
13.487520475584908,72.88892409865507,2.8614007924463905
0.34833082813125205,81.40380982342803,-10.876248267579419
-8.456725033662178,65.89066870782408,4.360684135324345
-18.02423359542848,120.58801943544279,-4.30587491731578
-15.278533623670455,138.72872898080203,11.54229379551475
17.710045604287945,138.94058456650362,4.010816823014028
-0.9143187155479916,51.60895558286753,-4.304578854473779
0.3238507293026696,90.30691686893779,18.073423074981896
9.054432206805076,79.37634369050815,-1.343654858090619
0.26937742703669815,120.55271302735686,-4.395718251397427
1.241943202737411,31.542266902966176,-13.373776627765803
-1.3141266494604447,56.927444733252905,-13.840555577273712
-18.956933973890507,18.295449916912098,-0.6961860288509601
-12.369504752912505,88.81058456677641,-7.942275101181319
-7.8252558107871435,112.61312047172991,-11.039624865493712
1.8114000860924213,153.04074509828902,4.572064015493804
-0.5948404927790519,147.74339574422086,3.990358486863946
-1.9423818141286235,131.8805259977205,11.250242700917735
-3.3604559272641787,108.25194492686323,4.512888838533965
-4.868913803745851,97.8361625570169,6.0517993720855205
-2.6946067350857277,77.86405870516253,-1.2846441420901031
-19.018506317803553,13.847710351682462,-0.7591824128998866
-6.514558522329747,97.1380765376905,-14.26807312746747
16.27395184169445,57.30552933197159,-0.5443347686397645
0.26368581578604233,122.88338923826467,0.5089779855240162
-2.5743536624270766,3.701400486189854,0.19083777339136793
-10.491723850084409,19.185253265782176,3.363598793564842
7.361330090677496,53.14186133199532,15.8429611644761
-14.09632645021733,173.72035481285144,-9.937339155400773
-3.8047465933768256,166.3881993107551,-3.7891755492370374
-15.011976877606727,174.6706575540979,10.662243903675904
-4.833672091077355,173.28579832167102,13.208931173903121
5.264188748852669,71.33825960329445,-1.4398363295203913
14.342363616033728,184.50651749530968,-0.19683461773167205
0.47000643078388804,174.21529389210934,-0.3649129901844731
-0.601998925158734,53.37425476003719,-0.0378881204462246
-6.000676016163402,155.55948511389033,0.9298683849854837
1.0250794229647344,58.343328236098735,-16.887157835460286
0.44313929031269783,183.41554164863814,-9.627025875158719
-0.5204346435427579,131.66115467372396,-9.4453448040351
-12.644765751820348,61.07812651389975,10.126811009781326
-11.868319527237935,176.0596332824176,-2.1509746192688817
6.8469174292372355,115.17215302762041,7.492829391515494
5.594689954565202,179.82221311388446,-0.3146762184091997
-4.8403190810406125,146.70739651928218,3.294449288430783
-0.8315356153790158,86.08958388705072,4.117862543918798
-2.5209476636305417,127.12591577559809,15.052700163509703
-15.7536371021849,175.30116514856786,-11.274717575600967
12.934128414396396,99.38212828825411,2.055376977246292
0.8230946624282537,150.39947249944677,3.549289275947812
14.333766419040398,191.12541978975437,7.806357157711455
-8.697612958043965,164.20602843106877,5.627898670655171
1.5415809994606475,161.81554259581418,-3.790699440584971
-4.597569882041063,65.91634467024315,-10.236408965361932
-4.384885990708527,78.65624841842292,6.729259424370724
-8.768057948864508,63.81719747749681,-1.1585674192952826
-11.004655537492829,153.10326449891076,0.8901063512647439
-3.5461692473533026,75.62217129447536,-5.341009666925964
8.735480492319653,115.020353480373,9.75273440879609
12.099835712392219,25.725442151627043,5.838569371109268
10.60300236160803,42.00721981133786,3.265293422065144
-3.8663752394824584,180.2461671956637,8.689725611082858
-0.8017353774541202,104.11680489320175,-0.03914231800798426
0.9495561653505739,6.3630695849899555,-8.306148125931657
11.31567697927811,71.43574630458667,-7.176068227253877
-3.0728330603570715,137.88381089640833,-4.102724683365669
-0.9917073313892835,79.46494118678532,-4.106880470673439
11.78878112134882,102.21889349003955,-14.920208017267596
-10.423078849708814,56.95891500536783,14.526894844598711
7.479643499380255,73.18548326543042,-2.5769388285658428
-2.9814599815100324,182.7055169548752,3.0561558758922125
-7.265078609442049,134.73583676255262,3.026893537253068
19.271845741428308,26.62337727612791,3.7117736355833872
11.720891673968723,100.44347580327859,9.782076247260807
-4.274286988765484,157.19123171915464,-5.600159588035789
-12.735011401038308,125.41091255056081,14.756159572695955
7.837286667804774,7.2077261220085065,-9.529654565546274
-1.4806151028366565,182.60864123082087,1.261719108475799
-1.1921133264106756,150.53270297782294,8.381372445106807
9.864158295341502,7.334088462118826,11.740045347685259
-14.787929490289612,65.65962536759147,9.865264478906989
-7.398167334903736,98.61135112234504,14.431262030773238
-5.413960609265221,52.4229894022513,1.2970016211216868
-1.4539560036660735,137.48596403034082,1.8295695806385905
-7.774383458324622,44.758438747784155,6.331903966485898
-11.51995120924777,195.4542825672838,-6.331705386520224
-0.5540064847009565,102.44527681632674,-1.8860256406496434
2.9533937663791114,66.4896643883831,-5.92735171473384
3.115466436203432,163.35820285649498,8.342207375497246
-1.536263833360095,51.677765441471,1.5221654826250468
12.682388842424343,147.32999890401598,-11.959187979569203
-8.447005194053627,164.35720573808072,9.769052287971176
7.8483900555943205,145.45446545695197,-9.179619711080667
10.025875646150393,54.945466948975174,13.618946810700308
-12.948081391710025,51.60444863058573,6.565525565760779
3.3229388538612743,89.49123354468675,-17.478251236556364
3.396842362477992,139.54599322499266,5.836586818556291
2.3885969552528614,52.36096674148057,15.573176647054103
2.5777531929920823,84.47371960701871,-17.82083048244107
5.052359855731678,141.6078658754838,-0.6993421310569264
0.8185367379692742,10.848708039636069,-1.5057263195338397
0.23052914265952573,97.19005196153783,-6.233077631422553
0.02194037329620177,30.48276310387681,1.1493720513870713
3.1370497371721733,134.5839619715632,13.4032733405985
0.9989003557123204,110.55363732852688,3.431792567690752
-2.477869655670395,56.79953325958833,-13.883687645274607
-3.4627181108892366,10.524407881123565,-0.326282092341935
9.676808137595312,20.82438976361538,1.51555101050112
-0.810763001615728,174.1702125734928,1.731664015158243
0.30247236528291366,157.18612108944507,0.2604297495944447
-6.204822952141394,66.40324808140383,7.400100817091737
1.6423424778594762,7.55260926293484,3.4267277170107846
2.4487293867522517,150.286513196574,-13.938645820573077
-7.972851347792014,153.5961709452028,-3.884498327890566
-0.6744359160120549,66.20089424214403,7.539502939926505
-11.02180033050032,166.083133494332,2.0679342673752044
-10.507591310609163,123.98967332558509,-7.248131466172567
-15.054974928117725,124.97780022661861,-1.5085544120268357
-1.0109678354709593,54.09303731468198,7.6563126519282205
17.13327297904913,118.15964874642486,-8.142299665671448
-4.388219041900985,13.862827881447526,-7.561068763576987
-6.221227159825946,169.33169970635328,10.906400889585266
-0.29134746667353056,131.78228740203105,-4.925699195981585
-8.368409941419202,146.46702936779747,7.182489791283371
-11.359723941957357,28.874206177216543,7.0326887299036125
13.6557504739433,54.54398321165097,12.85822530387824
-5.89643947645408,155.92914558378914,-0.3400565635682134
13.537899868852316,40.83171011965423,-12.84175139247623
-19.743326048697355,123.53522918172253,0.44588853901108216
1.5533455872284039,194.97867884091397,-1.1254974823826638
9.423729040305506,14.421460256355111,16.463572416130315
-12.908147121077423,95.41011704605047,8.646932220374797
4.3468053576142145,168.39365221169652,-17.61626291610665
6.940480902933212,106.18877259965116,10.061245634487676
-13.740931792164456,3.967331814904562,8.260210768927816
11.493912100011269,152.10126820382817,13.913586019786694
-1.7037923505703603,121.00011075293502,2.823750751531068
11.818183938135828,159.7020466974882,8.720817468136469
-4.73216269765906,46.05131523358787,17.571702797262873
0.10196263902285656,97.61277453996836,-0.34113449715603067
17.641751104813995,193.73810740943634,8.58067711257779
-18.561662500596114,15.633626145939527,4.364459439523747
10.288788493474987,155.79625517679222,3.7082332031582395
-14.62974247715535,188.7348999643692,-11.56304620393043
-8.675749189424417,170.466330178519,-1.6394151579691147
0.043585393403383646,129.18644214199455,0.839133399743137
1.7173756047089306,89.13822572369602,15.109369707922912
0.31843103262976863,161.7412519389397,6.032455761945668
12.072345643166292,199.8704953118299,-6.566839092497925
3.059386672184778,8.312035412694563,0.3525738234024157
10.332558520696963,68.97853917702066,-2.548254352748227
-9.090819817256621,3.5500597949237767,-16.903390000404567
-3.637266906452344,69.66211557468434,1.4487777423275825
-9.68031821404144,191.68542499394954,4.262567395423274
-15.926580528176686,107.77092268919652,-0.4070438548673288
-6.304712583425509,34.99110217300419,13.387303129236072
3.7260178424982935,86.51669313663628,-4.235733384983867
-3.2182261135784684,22.329159994819992,-0.2927708056413156
-3.9039242175474107,74.49290055788043,-11.280737199216894
-2.466638990734946,104.81902271190162,-1.0368149590092208
5.03259412837247,42.446380062845044,14.59119195323234
2.067856386997814,14.47699266260929,-7.467699536997312
6.4615711433425504,194.29872689411692,-9.002530534244773
-5.84856922700153,113.80933477798769,3.579334115170906
-9.514042753584418,103.52329358003787,12.012911987144642
-0.5626467139008907,115.30220924665424,-17.49282231052124
-2.4700142635604614,122.86901820460399,0.7980794476808964
-0.8544537969315921,173.41722960388805,-0.8406463712036544
-4.652573987625015,177.27140354851088,7.061519958024277
-15.685099766157569,126.01986626037069,-4.563145976482454
7.068594852579008,45.30620730365818,1.2522730534887376
9.599714840387481,124.0534593166063,4.756649637951703
-15.20967952549732,145.93004416123904,-4.64380066953438
5.167562804794526,83.0069479161297,-3.113843944123573
-15.85149764842824,145.6204195368588,3.697560563909599
12.376235655552332,43.0709496733255,-12.809727404616122
-8.81552351244225,40.50011659460164,7.815811836699803
-10.853517904626216,113.15619619270637,4.94592108237018
-5.817745455049006,22.931467030831598,-7.1574258365994545
-7.4932388891224235,163.02405202691395,1.1396672288768332
11.845710249098584,168.61953525948948,-15.747328472340438
-0.19164632411191776,171.18916388367361,-0.03846463530783026
-6.686534742699256,96.67984120930042,-0.010128505388400107
7.205143579769505,151.64835022957527,-14.212240262511422
-16.456448373049863,136.7032339102209,7.9977268214221535
-3.1214851171658,3.745491407759638,-11.850856951866607
-11.342965214855305,36.566492503389945,-10.581061886019997
-7.104747852396495,163.20115289248702,-1.8596361001193729
-4.951907539187935,87.58155272673001,-0.4174544527700364
-10.258225217554893,87.21187835192626,-13.74550476218773
1.0780150105077293,39.341375779408864,-1.985939566150787
-11.038458931732624,50.997253940851174,-13.731340912648632
-15.662834185190864,153.917156409996,-6.295131354400785
-2.231689913480811,126.38916725946584,19.620855769632858
4.225113177014205,124.84846727382768,1.2759866438204113
11.52427995772603,115.80068617258053,16.272445248753893
0.0015023632129488862,166.50071698705298,-0.0029962628237574763
9.728951997851723,157.5735421665787,2.3273034684912624
-2.226422499706446,68.78357092937064,-0.749714570508157
-0.5550919255621957,12.18810684135958,-1.9852054866039455
6.016006151699476,126.69882482549963,0.49634899047510567
-10.64091277598539,68.32438758080204,-6.862572179215103
3.1034401620680954,129.7574492222942,-9.7782485836395
-3.641695576703206,129.8367777796979,0.8669269883496714
2.346186113521072,195.50718808525147,2.298879128971283
-2.5355248503004604,163.27874089579018,12.840864618532237
-12.375927017136698,165.51842216829138,-8.556671940857695
-1.460190134359629,113.0456378463499,-1.382374170863574
-15.484696091639213,152.89799186857266,10.788956649851274
-4.07142720834653,151.25787382136636,10.265314101818356
-15.766897222916436,168.16797987090638,5.1272096887218455
5.639559614213278,144.34246808904675,10.031666814726876
-13.826801840157023,0.8753023449359354,9.905104451553973
9.866359077158425,81.76371835478902,-6.187365282252084
1.6954475928200317,98.51235904772831,15.91693165982112
-7.0491031067928605,125.38499834063101,-16.021008247619218
-5.534549215048681,56.298143929094245,3.9000313716550177
-16.59856265153189,187.86652506557763,-9.671350007249977
-2.8397935268831747,167.79997769589517,-1.121532085019678
10.274061543863377,181.8845611056347,8.846705470980273
7.02284814150387,77.9401888239353,-0.5788567852079584
2.0794140451306125,56.95568230120944,-7.855899558518194
3.801983436391375,52.05835638469891,-17.640154353057312
-1.8639667461282108,154.19570529026856,-8.776408195683134
-12.151871580956977,54.42178557675656,0.6348164727105885
0.5397488624493781,83.50841370052886,0.20193562492544986
11.70644726335659,26.45872445864905,-8.374740010414039
3.732034216206759,132.678296636949,9.237652634070306
2.4696040192914808,71.25074782792566,7.013782178846035
8.170837543624081,101.82782642643689,-13.074360852781705
-10.968768015217629,154.09760803837304,-1.550337595167012
0.047899367854983756,196.43320948044288,-1.2026563128407064
4.368382511183383,191.48706270458968,-9.978833980634748
-4.8163685961435965,175.66470453567737,-16.778038486744734
11.098424967316419,8.131125421596309,9.558445237688378
-5.3512271368415245,181.31334856442996,3.3166833559144075
1.0127418780663604,135.10171920184618,-0.3037259215776041
2.7823015194364755,152.04579530057978,-18.246221704032386
-6.571655268746555,187.36870908251458,-14.824760327123572
-1.5822464852277682,156.028013988798,-0.08566947487980918
5.008426079218391,23.317691750331647,-8.510194858740137
-0.32240196337560834,100.17001398803365,4.9997351009074995
-9.460729346883985,13.81787633441618,12.422445608628353
0.1429666020475607,117.47794871949955,-2.411827480842504
-7.013123904255197,148.2829270101329,7.332413153937414
-3.5463560346961818,133.51595466397134,-3.327574922883446
1.9474323338755548,197.16760675735588,-1.779770135074766
-6.8086424279965225,196.54883141797234,-13.751577315557327
8.443125173792636,152.97549563181892,5.201124980019147
1.0701184346290507,98.87628004459165,-5.874448096737943
0.35528004135567476,103.80150710064531,5.526637432911268
-7.975028439999434,196.30486880291883,7.186994465297647
-7.503829673978105,159.42422165766044,-4.944882425289948
-1.18173280703474,68.39663478859926,1.5605161540200434
-3.7445387913808648,62.94864106885471,1.4712379173390409
2.361279874032906,144.5005253084807,-4.226143896924075
5.141917490198552,79.37758656557857,6.649635815112333
-7.030000872301415,40.07063180580277,-3.8247841122024
1.1435039952327037,195.25834093726706,-0.9463612134770508
15.433214378376046,5.6318167784694895,-7.010849587275489
2.8674102683868496,104.18104758376205,9.232157674306727
-0.5788196215318759,107.25435341221828,4.606511656115315
17.436840868998367,147.5662803053502,-5.2403967742591435
-12.787347528611395,184.3561289122822,4.825882669349619
-5.413390479853422,112.18145870800471,-0.3310282067395653
-2.2896319764259236,12.665612963184426,-11.05510094696035
15.724433477419712,102.24759141972204,8.021743968570055
-1.8055818918181925,92.54174422160126,7.985355001583673
-8.00231101897137,70.26538619856152,0.4649866855726907
-0.35027214714484994,105.41008185702707,-8.727553611333178
8.003432440744948,44.68641297162321,12.27168199412758
4.6026055774255505,27.00044820553986,9.16268277627194
9.310884967799687,147.30563772696857,8.75037179198794
3.2726382105815834,53.529201536250895,-2.2939909232385944
-7.856663218920953,36.51547463325973,-6.63334387384627
0.2257747132860072,56.794480743569345,-5.207936826263104
-2.878088026866963,51.64673448642858,17.71322516282379
-8.417616877535677,82.334605423721,8.823310065816077
10.475012193348224,45.0206903789844,-11.792930562830179
2.9827595136052265,51.43362306911135,4.745324929875877
-4.51896456045147,56.92154779006666,-1.0592782304245094
-1.1587760858092027,4.280850016179216,2.5156348571817597
-6.995127312810819,144.88798888459556,-9.9209845309377
0.26839117680845515,186.3654771228526,-0.9017101093320525
-0.6932613456224678,147.77597872433756,0.2433701036308001
8.674563711955592,45.008860292729416,0.7861878530920994
-11.551195279033342,12.406630044621503,5.857282648565511
1.2186807024962971,126.1961798235832,-8.066417513230265
-3.1629158391310983,76.1582427041902,-8.60374243352627
16.344711061388537,40.8924107062387,6.752250713162018
6.0080165866532145,156.06984005509582,-1.7876333015816432
-10.858701429825,133.05378819410714,-5.354667713280661
-4.709925354426064,1.9396908180497885,-6.624055790928318
-12.017635201575729,7.027665895694946,-10.59751778874605
-0.5641842508669316,102.09715762154418,-0.15748907475400556
12.045140740040042,0.9229680813314323,7.635217712481788
-4.603892396423473,159.3507898137743,-6.907299833973091
1.408436531278468,14.279811404115872,0.756224908230648
18.62550575472224,167.1679959235751,0.7232820088780813
5.004218702984691,62.52459644343355,3.2552223280219783
-10.968973144631772,158.99226932091594,1.1642006308559025
11.318375432702709,12.64028359826308,-8.864536621863834
-3.0927244268664853,187.14797785983427,4.80930060257564
-7.556469126802062,108.68798674279341,-15.622178879354268
-4.519831012372292,123.1468902767717,5.995856072335394
-5.018126516765311,37.446073738729524,-2.3482112798184414
2.990565978392659,161.96045212900964,6.125663238348053
-4.393421778781077,18.06350605998437,8.648501343894747
11.232757334644688,107.25532677923519,9.44254185534417
-17.87011892748682,194.6314182104162,-1.0097451183936907
-1.143328499902008,186.54419943642225,-18.342581571154227
-15.952832191894267,8.046173321292072,11.783937476632287
-2.2338865712436644,45.202413523812645,7.128717925695469
-1.9934362629991547,10.417639425758685,-19.0857368238567
0.7717711928161255,112.66821620623449,19.293203530263067
-2.1205973513305167,156.66710868779612,16.58529950740089
-2.0128767444811135,134.5938082137961,2.855038251168776
-7.0970628560678355,123.83354848353756,-4.810891256992269
4.024250774951178,174.33508196235394,-14.575019009577105
-2.2967005013484476,135.9972428970954,5.684050788629701
4.013526190316593,59.17962111349038,-6.455540359277712
-5.659698641772798,41.730495102297624,4.091464174012005
-1.529398624303181,174.81654647128724,6.013754517899623
4.903193848930037,108.56145616089951,-3.950874040722326
1.3824308278804063,163.92307070175377,-1.2982579253084863
-9.32879017242701,147.4094217819838,0.9753448838997806
-12.443564969471764,7.831208272309631,-5.416581704468614
-3.2746861238044938,166.69969775958592,-11.294100028135327
19.31881972196466,173.45558126045108,-2.4970074109148905
15.98148836843135,28.854183681198208,-0.6335226877894319
5.211248200997735,136.77975829509853,-8.902504937205606
-5.063630984311055,1.5117525559755762,14.949128255990173
0.28407142702809507,144.473636401475,0.14460322109831858
-5.155158935327704,58.70853263572262,18.531269426429816
-11.28758295523989,151.68099007498859,6.371803172741768
7.6175423689825905,135.42911350944956,-4.343341601051623
16.175875543532346,46.73277368600712,-9.967356018509653
10.950795699016219,182.90807824943803,0.3239050635413239
-4.1057972187782985,124.98851322455691,10.205531958386832
-9.44968613616815,96.26168476435673,-6.077925961941198
6.673316896137483,74.70508923649658,-6.33857127764656
-3.385936850377475,5.769897812568736,-3.128877384663181
1.446687512978666,147.4032364430127,-9.366543703564968
-9.16084995081908,96.63339216407702,13.956096932503652
-15.20643979426402,5.991268636629998,9.15290049096885
2.0470295832903562,170.69334483220064,-1.588309641331443
-19.11345134384565,191.42609218147578,4.921042885139023
-10.668214351613274,163.40957206542976,8.224813987439035
4.181418076675632,161.065254132351,-8.822028484919002
-3.4571791029183885,102.40854589932991,6.655925585796979
-2.059136290809244,14.058616485000709,12.6192942114612
3.9936010315922768,5.765636374632366,-9.231868823742072
-2.612142486852058,82.44706558353201,-2.0571037311774263
-0.26725992301488094,149.98391031480224,0.20209189941938432
-0.6161361435386116,144.79623088257418,-2.440947335015094
-6.564219054276917,4.64086976516036,18.051482642929464
0.8006927380956609,49.06438147668708,19.05014294011909
-10.20053621211738,43.560499924865326,-0.20471369580836504
-6.163082627968755,151.38562585792118,-0.1810203328591531
-0.13019211759617325,174.00385608941528,-6.727106330704089
0.28253849907987416,22.979525800532684,3.089109658833921
3.052572544470572,172.93588072287884,-15.44653925813724
0.04961764219752934,84.66711499148407,-0.28657691921924
9.122749962367527,111.89999755429953,-1.2029667693096622
-2.0717376730501873,156.96409864623257,-19.495836409035068
-6.2163669552008916,23.802729798292077,-3.589096279619703
5.631482992239678,3.234533012761087,-16.748864719375
8.595696323547898,3.1309771950480014,-2.245561712021415
14.021544541070147,0.8362982137726238,8.611875342543764
-11.144473938794176,49.70920835556451,-9.273663030634014
-10.819794714206795,118.22464212085535,-5.063972077999598
-3.373311331271112,184.65010355382577,-17.51541333230228
-12.869166209564876,48.875845586628984,-4.703503806737784
-11.960991436507035,180.02781943900465,16.01353519801442
-7.617960922321172,98.65185184393145,8.461652101929582
-9.15774824521725,75.13055535822384,13.574634580390006
1.6551757001207485,120.31190276438892,1.464862372854936
4.6996055852817795,46.53334225218511,2.1831612866533514
-2.5749508757742574,0.9908451300170817,-11.898675268602679
-10.463756265957922,171.74321240922245,-9.148173158897567
3.448394078897143,121.9819151267244,-0.17678876933757326
-2.5365252916924894,49.10289469575177,18.93324057016535
17.968785590790137,106.29293843249299,-3.880493023019412
12.804517605955484,196.9639733131803,1.4561909239858526
3.0540505398303535,165.3652253172733,-2.0587022233546173
4.3116179556879635,143.67218721797553,-14.47267175436189
5.742622680752575,5.673146855071121,-4.461688146478125
4.436492147435763,102.16532715110482,-13.477667489656527
-14.25996562822248,182.8169668849425,7.332293196167411
-3.2867445156599127,32.467923905456516,4.266436256167575
1.7392092683725537,24.680284030894796,-14.060634799202123
7.748953015650458,185.33318223225308,-5.444030604471961
-0.24513409914966586,48.539103396699176,0.5519480210048344
18.171815075638282,92.06452510851344,2.258150425349454
0.015169635159250183,56.931380948451384,0.053358375807320224
3.565443546110673,163.66640423451318,-2.2002344911702485
-10.598926795643894,186.87321820087854,12.652152506957178
-9.75368211097858,186.99795629878938,-2.9790937968288214
-1.6398912514680044,83.49024316421365,-10.049839427244681
9.387893534659463,10.919076205155886,4.513408043089055
-14.326508537741235,143.08043701769867,10.622079634389475
1.1637148679626366,4.163236656892599,-1.515633350124413
8.208362220498483,149.90960862550182,0.9393286937760107
5.117217293997956,90.19694568372718,4.974100398074387
10.310622082032422,13.745324052193997,-11.268831570668226
-9.39675584706271,151.36183261800932,-14.742798607619129
10.264236858246107,199.68001114564368,13.590355650893398
10.209320894413922,154.87201635305843,12.507257194501694
-0.5310710480641264,169.30084534356538,3.406763782859453
-5.760333941671556,176.93913790265168,11.275792944636105
-8.733024693240958,183.145501993014,16.895353651556473
-3.7772708145988725,100.14781133378996,-6.212579727736246
-11.553748193822186,125.90639129278425,15.780856923488278
-3.02533304487818,48.98912820483907,-0.6521514518479659
1.7426447251116506,60.00247601214133,-0.5095534165236089
-9.55051224426495,114.3496754273784,17.217733094690686
14.399271541376516,3.2516938898426995,10.210235002855882
0.31842600587981207,49.9520592764547,-7.045577572485027
2.1163627303548087,71.48332752342992,-8.346266228569654
13.998650808581443,179.79838441288715,3.328659405631757
-0.6872841543702576,149.31511054507658,-0.7682439156974293
6.6124109308870835,47.27198495490113,-5.037782052762883
-1.9291953523327072,106.37402644592031,3.8603209685793476
-11.804033130281477,105.09048366539162,-14.390151729908238
0.05612733658124503,153.94426142997827,1.7167044134554608
-9.63529878193123,67.97473459917632,11.776722784331469
4.445497730804302,182.0035549391281,-2.07077782475089
-4.928314661878638,148.77635545143414,0.8802099433680544
0.6934847998197693,128.1753362803961,-0.1608909586982499
-15.158605429021959,38.32058153776521,-8.755509447487311
0.14821167879045352,39.94539926885239,-5.519118380525988
-4.118337734277365,25.230738643231952,-2.3131742290735984
-5.493288611781405,28.36471256633013,5.612847977075886
-9.414643727365304,11.196238185752815,-5.920832020215648
16.065989766242318,156.928160986082,11.325567608019735
-3.0556443033366714,6.378118882085704,2.670321676061248
5.539231390760218,197.68102118718275,-3.9856447517218387
-9.908162707192153,155.9737782239773,-6.5521407984244195
-11.939892181341738,151.53211297128303,-13.256438987440418
3.2561450254312736,13.987189510914956,-6.937516529830225
-2.2624053753255384,163.20554322612878,8.31366126141735
3.755446539190755,69.16958849532675,-7.367541170638508
2.997712754614227,146.49221000651767,7.876925810714731
0.9186589230193926,47.49851142220454,2.8881045251165283
8.398824967456859,38.47842960036536,0.13032933809684785
1.209959434332797,64.70200766054515,3.371679360876397
-0.7145188383706192,196.8501177755459,1.3738193315185787
-3.738614472812828,140.17377190085944,8.028677281175577
-1.5731894080755369,195.28879882142542,0.05828709079344537
0.6936972926813978,138.4598569221379,0.4895110650300561
-8.56027947183654,128.43297659039024,4.636442340826057
-12.452656984858912,14.828040137660615,-7.963149140499892
-5.28684733067394,41.91818541395382,-5.384469402267518
12.11307542385408,60.33516126354132,12.897339946338478
-0.735038835344132,68.76161759571151,0.28450768140836674
-10.491716495343743,125.65266480437325,8.118329228756412
11.490190857869424,101.87418726662472,-0.31083708526247805
-8.359343179568128,175.0195729831235,12.480872031810364
-17.017644032419007,190.58350870746673,-8.347156952730911
0.4624356675062827,42.021397270713614,-0.13880503928807209
4.08494419958549,29.301590185764237,6.684093698304372
6.4823009699668255,52.354820107072555,-10.749682104237321
-3.5907664219618916,92.05611146144285,-1.1565546358308783
9.868432019461732,124.8593056048468,-4.022740570258663
0.5292095679130138,77.83645623789297,-8.659664402708179
-14.121627980490505,17.338380438383382,-3.625109463575652
-5.412574418426432,183.10333000497218,8.778991531547096
-6.184452535789879,149.53083833300772,9.128332297757812
-0.22210962924575733,132.75882200040888,-4.54222184914466
1.9688703889625703,18.265875815577527,5.133698216348398
0.5385432598906613,92.62100616638365,1.1403863539676566
1.9326188120904917,46.10279895567031,2.382052658916169
-8.448818031139952,193.05304762021248,-1.6970300095032989
-6.6277589409334245,151.40402342597298,8.434745739445884
13.947527313112982,196.67158752685887,-5.325198237121606
-1.277470359513198,165.45348587233502,19.013221487773897
-5.008270181199573,189.00643985129435,11.95380534874381
8.276112742378569,128.93983469047328,6.019444659566759
-3.6489185496115746,102.8602791789072,14.269669536962528
-0.887521331107039,131.9010517675524,-2.710987245535874
3.598290064894072,186.52740031709564,1.6062038109027001
6.655148900290672,166.70846100650934,8.666374720469427
3.026529075028143,83.86220632989935,-16.64548476139015
3.6103178802091893,20.946524327551174,-9.620831155144607
11.858610078832426,103.93046202133667,6.528873573973715
-1.0102548357657475,185.4216709262795,-1.854274363184113
-8.746429062802822,12.50170545701581,1.2867576782406085
7.098489456625579,0.8145260582691938,-3.759217971846948
-8.982243667879018,76.98893695632914,3.640003713195243
2.9891892088650764,120.5611582827623,12.267376477272485
-0.4792505763519035,134.6576135740824,0.8108305223802323
8.903919022995977,188.34000713343727,3.4559287675898673
6.299562798316093,138.3986557835848,2.0467228652948046
2.0956115980358607,189.62683706102,-5.674724343113659
-4.48460293289497,173.60380587525665,2.513544506684114
3.404563539586964,143.28533061177623,-1.0589753003522597
-2.355040812664199,42.68985011354298,1.1675744664270158
-0.9098387807032552,161.24951269353062,-3.918576332360437
-2.774639455969245,182.06653776038866,3.399000167246988
-8.801428082358807,47.16538923776543,-6.1004442053081585
-4.342334999326577,146.55811579530584,3.627681407953416
-5.539164252261384,36.190643802942546,4.800652511238868
12.873440566254551,81.75947028014785,-0.4617471558898957
-3.7331142303746074,82.43311570173606,-6.124948058246912
3.93755983515273,126.17165832910217,0.3845485517876492
0.6082583282871566,161.28601905556624,-12.68445150823654
10.762111320033501,93.96886177426842,-15.823622052844325
19.497235136116593,7.142702357113517,0.17148767426937303
6.624384054276884,25.99914503305074,-11.5922890549191
-3.3070479439672695,52.124462281040465,-0.8285249153413116
1.2123224333056233,39.35726755421762,-0.5790630596820309
5.78276567077763,52.837987744011116,2.6110594367331887
0.18791622197831345,80.6601204939055,7.362072534007906
2.6410660105762913,16.299759637719703,1.3432409307458877
-4.449583827573635,167.35313651058203,3.3076268492355765
0.4520451145729689,70.05842778314688,0.4630271100585094
17.668131750433787,183.11322669118263,4.996659925332984
3.445989778894769,172.05799736493842,0.6495744928867689
-7.1650309950262026,80.13769875867433,1.3720475885892938
18.11029109900788,122.13769864511698,3.425429097661841
-0.1995882023156721,126.07672389068496,-11.058763395301668
0.33407114848393854,36.01202754076607,-11.061795026792709
2.2511330567176486,17.912572347091114,13.133456971275917
5.482927818747618,98.9113155693516,1.599907620434171
-3.07242587258061,1.7088154608650985,5.224626501648606
-16.48603435765108,180.56278542542964,2.1956758658827114
2.6552342105664057,173.458988196829,-4.756363650147343
-3.340391946386761,91.21638550197034,-6.5959788152073555
-10.94472940045398,128.1804383075933,-3.4711536452036937
0.6760801350390605,61.74554001089119,-1.963603590586089
1.594067720786086,47.526070598350366,19.167540729526856
8.211498183148759,133.04594551603122,-4.89537079236361
0.034802408715137435,137.21348862859492,4.313396954280586
-4.674078798939365,19.080982350849474,14.935157259394408
16.64858607725016,125.77194585215763,-8.261725288789938
-1.099223604025825,89.0112129380133,4.806617458994155
-1.353923730540296,172.31105100243892,-6.088591921511824
0.4990350781368538,14.4280974225377,0.13657083298117176
1.4112048236162764,121.72575306542228,0.04993158918945341
-2.4661855829222534,137.96236369794002,-2.880524856099961
0.7956627729738514,133.79837712443373,0.3029409609729533
-9.910691970305326,132.58343615256288,-3.230029726085839
3.5297732503885926,46.68150101162938,0.13735282176590174
-1.4127106460787864,75.71448583731524,2.726256344532346
3.316274270351833,33.50007975975882,11.195661503331218
-9.622219318661347,61.5174363834873,-12.713849135769772
-2.524480454144237,183.8343439389821,-14.563051932486319
-19.503012984777897,88.30235398929385,-2.799881736398355
7.513595668666969,55.18331890451174,-9.091576403133068
2.713004520787798,186.15521847100672,4.0748706543535285
-1.1569109196908742,135.86277208679505,-5.101163997678472
11.321440780764163,123.99288643565092,15.139207713576644
-0.08525569104634532,144.28331865197435,2.565051390821681
0.8055049179941545,65.36346090147957,0.45785791726946795
1.8176330120942175,160.09972749381404,18.109427000544024
-13.918402257073927,1.319168388024683,-8.645220157710202
3.8774634701442063,78.15296893523305,5.453026987907145
12.593037808942626,57.29508828496235,14.56069541955849
-5.684588070164002,190.88545574539253,-5.67003509392898
1.390140770158681,11.125948721212108,3.896585449447676
-3.7083209041045992,63.55396941824034,-1.2012916307832315
-13.322965314817921,188.30274606059538,-14.657372637165043
-13.896036753327971,93.035025174586,0.30267008448760413
-5.091329668993413,24.32844415114066,-0.30072375957286407
-17.707834404346137,194.87134962366616,-3.9335880157701806
-0.38445686904342885,37.62629507420443,12.292804747352916
1.7539175371660147,49.541224948470706,-1.4684208200508384
10.579542294966844,166.55661807975613,-7.806640637943355
-1.0136534202040268,95.86951377776116,-3.7770040425371474
11.6770638055193,13.215620966383511,4.7501589829955995
5.113198316549458,154.23658251519987,-1.0256302832994748
-5.53096445733347,181.45346424686306,8.66715215308493
-2.2792196595744585,117.30085008831703,17.870084720707595
-0.1724407338862184,141.37473009886003,-6.563815406685458
-14.6894940653456,40.01547469816551,-12.460223764273582
1.424004000591503,0.15904846890169022,-17.99391593188477
-7.127667588024865,54.8870814233815,11.583596778022986
11.986592552243328,15.908395881756476,-2.258364001208046
10.594659659562726,54.32851655732895,15.426824930727708
-1.609976343676484,20.823886036727444,1.5182832537051771
1.3370349140845177,152.53802026546336,-7.1554738439116825
-6.173045778962471,17.357600615967563,9.767408791994843
-2.495464533482579,169.76622668364442,9.21924735825349
15.260060623849586,71.54414365606394,-7.681204297551263
8.694533565907197,195.2190197624196,-1.3703307406344494
-14.552162836847913,84.90377074418751,-0.9074866405956902
13.320162152878245,32.29416617891319,-1.5148817777507728
-16.670530215195996,198.82158183537072,5.044311061210547
2.246267332754509,7.091298774617272,4.817337179521909
-3.4743042661852197,125.334804712839,-5.978907557551854
-5.875885089347372,175.8886481198844,-12.240695149287735
-4.120934363656801,162.04846498683142,10.314652560573268
-5.629186382253078,17.718418043700822,11.839443189042163
1.625995990801615,117.56690689825294,0.7126827864393933
3.322809541881874,188.31538933181912,1.2426577370821867
-0.22861184316005817,134.4481463263346,-0.46942950950413465
-0.08613866806114717,70.86265152211715,-7.7720837546469514
-1.152700971560929,57.365619802918474,2.8606977653469117
0.5897597568654779,89.1811404601157,-0.4353858754059024
-7.038652723916969,159.0774218801303,6.7977562685078095
-6.676515041158043,98.70536678967193,-7.439989009759495
8.478205000541458,69.30711848349833,-4.822655295137895
-1.2083055789451471,95.31918290151657,-1.8244782751572666
5.3706514278791015,31.606167645946435,5.5409879536418485
-13.061527383136141,25.36876073742331,-1.0354237518897016
9.861489374903973,36.65569326317679,2.831013685633693
4.383450494232032,63.18811714991482,-14.329928414388805
5.716033516254061,41.18975049491349,6.072090999043826
15.708591437357132,165.93306788700554,3.1442214996673763
2.123727308545911,25.843338431569695,12.962706924698374
-1.5577555276481427,77.12157673216642,3.236526199895304
-3.4552522789082745,123.81952314481184,5.093724019152348
-11.632481885392329,44.355962543719315,-8.78306104751807
1.517004038188412,128.30536110304482,4.899477954779545
-0.07233357512705937,170.6507447687552,2.440598171829422
4.082894909698433,90.34321036403034,-9.283295250682997
-0.19558657336814034,103.38311670960098,0.16545992627511444
-11.297076523918236,21.452033507708855,-13.479702664603147
-8.64400426857592,111.25083104815926,-6.421885908839163
-17.652040613997464,193.63647129266724,7.26703451703322
5.5844219625420335,137.401219889308,-9.34719032375092
-9.851423961069711,30.309045499807663,16.479477187898716
-3.9759244382240335,20.211878405239748,1.3909247394888136
-14.272778550883222,75.8131802062007,3.8629043202341227
-10.125862609771389,145.72740504874352,12.292274699556776
0.09431324863151742,23.14023042030806,-2.7859393245677615
-1.5660037872044617,114.49437510475131,2.241908782371014
3.5472615764101,9.41560928240477,-2.8060003487789382
-4.359401329309822,29.42467646416791,4.863929622560135
-10.96990004550785,41.56499482717477,-7.170648205815338
2.8694160049038615,108.27448922943603,1.7108194071126726
-9.668628143220054,61.578396390685896,3.6654674585461864
-11.801708885845269,25.085223484307285,-2.8812106343055106
-1.949096949144178,21.119482557213342,7.601047094586759
-1.655419034608079,50.55457554406566,-0.17010690237286488
-6.807901657137591,115.76245580199391,13.620417771384329
