-85.62485414863319,-194.0605206330766,0.7941473130207497
223.9316378531833,183.60552567545838,0.8484403471856613
216.01925639958978,-8.121053527551114,0.6516697308870254
-21.802300642503933,-49.81152651199042,0.0820190384613475
-66.65418212893505,-49.24326638180615,0.7375056807281088
-23.850358636045083,44.35922125561059,0.8819059776534451
-9.712003897905653,-42.10497728451618,0.8132262600067912
-95.31800596138785,-78.55296941004381,0.22805486156436672
-110.30204012853136,-162.2847635848746,0.8014316561911858
-16.732300099109754,-105.71181079605864,0.47905049781221487
-246.7553182193484,175.97975299417865,0.6305186539710804
-51.66264792414985,-282.18739841280683,0.6087928013971853
-109.77148165880486,-14.293253871013919,0.8356066698413637
-57.38583301185236,11.604903244602939,0.5189027891877902
95.0511365363837,8.818175376929904,0.06913646462374134
-44.26158564974654,155.71216545091013,0.991045721994121
58.26568216294411,-93.27786025225933,0.46680123246130956
3.3286734689387587,-85.5334075050072,0.3327027747333269
-105.50409995393974,72.74920513834438,0.4141389348029242
-104.5277029005661,138.54683349049435,0.28836970060512657
42.8362325937476,-86.4298423768935,0.2603174889013121
20.00503503504931,354.01846016913004,0.04381660589267822
-73.87681697431998,-90.14518461543747,0.2460050004564167
68.77988309664028,67.43222639932355,0.14501861115764136
90.63937374583556,18.716631672687484,0.4240765948849663
119.9730852280403,-111.44959439306051,0.908042766127152
-54.33927799106778,115.89041375302547,0.6436073884324254
-10.458025391467393,-134.31064207616618,0.42096062419008407
-97.58765283295202,98.31508866380888,0.3184474261286485
99.59700395229113,102.67456356478657,0.321338360180459
37.07043676270379,129.7492013215248,0.38933501669644455
61.56077527427101,129.54897801080992,0.9189414010298222
123.72360023699886,-65.51785615614543,0.16618189864748867
70.04139286690399,136.2804987576268,0.2943730264095562
98.1927623270601,53.869352371168624,0.11450805533237518
-63.63143209319438,-52.562008141539984,0.7504203892949867
-16.22560293843172,87.72499599106473,0.34854759338457386
-25.453260201863763,0.45924454008225685,0.8437072889760794
21.067113511692643,96.04886035463775,0.2245875737217281
200.6836357160112,63.373662275510945,0.0726311573428684
-10.292782487558945,97.58378303907963,0.7506946768821843
-8.532429840622854,-41.06249922384681,0.7544900315209414
-7.229665187062197,154.96526149816893,0.7786717034160923
114.437611827282,87.85418440278274,0.5717906150523591
73.75110484466312,42.49774095100161,0.40645723008221657
-120.65499226462939,77.8129361456379,0.607657765139617
-25.68447728836522,-166.99439308291147,0.3203272184016712
-68.17646279156786,2.379864656866524,0.23244405441063642
35.611205605603075,-51.56136931905911,0.9634675528163705
6.368099342819171,5.554580365860276,0.7069377349193057
13.182658968750607,61.994055357045006,0.8137795015314728
-10.4637454569359,-142.150533495834,0.44124672289461864
99.15261496789441,6.57538775954622,0.17676426517506783
101.74957850150099,-34.3823542536397,0.6922020444061661
174.6101370612549,72.00984611316466,0.8059737620232794
177.66493395619452,49.76953337902659,0.8291124604998893
121.0357463820792,-125.65290920275716,0.21539809075019078
-4.248011968329059,-70.89216160589629,0.13509961457163455
164.07673494354955,146.62729493243836,0.9000675684667023
-56.55798332120218,-139.76795855166358,0.23339383997269947
25.538807455916235,92.7926919130108,0.2303530312890132
-225.68599086580022,109.68723102802078,0.18553911037077975
18.027354576413103,-85.56719966813108,0.5390768843212452
-60.46519252193113,12.04672568440532,0.5740893980796609
-97.48157190335374,-166.94442413687364,0.13180024260862777
18.262131741509673,-51.65900173140362,0.5675348254338853
-9.29399508194448,14.047011434643716,0.07517733056791709
42.70475232420045,-31.389271935403716,0.9713960362124464
-47.89819962232248,-22.357619418865447,0.06421878056865116
-169.93082061459302,1.2097405135811423,0.6459814382377658
179.61058166867667,-114.96742390090714,0.35742573639959074
-38.032475997902864,161.67938922083255,0.5512273710614853
3.0837651508779986,37.075072073527245,0.06955131897612032
-28.052802936650444,-94.68194751498189,0.8258640561703435
-41.03588963327775,14.459772348710075,0.35531368121050344
-13.117083113864581,195.8986487185572,0.14178157973684413
-58.60104094782507,115.07830078631034,0.8372507622501214
-11.47148659971634,-13.260969326584906,0.14919592892856814
-48.52629099535648,168.2806848637399,0.09271674041485778
6.807586385321359,-85.94097944539934,0.24303594806611217
110.29651496939515,-15.210427285020605,0.8191500535635677
25.60035719766208,64.34280489442784,0.3887172457179513
-186.7881079448574,-48.84696422240113,0.15546047691580656
62.5592398211993,-119.40703129500511,0.06859760517785962
-92.23646914282571,-60.85304968824005,0.6580537438174814
163.99853706483208,36.96860932660013,0.7030278407608285
-70.72787691378633,101.57061534834075,0.2511682547622457
-28.593042253476725,-134.65145379743936,0.3612562259386558
-76.46575291673193,-53.79151900139247,0.5720987775764751
-19.30582607209794,-120.5683049265656,0.5160736326816083
-64.76098049630285,-164.9489082550278,0.6341864410058735
-91.82144950329328,8.343592419897826,0.3702167743745969
-58.642560229052286,-32.89504733689858,0.33607379846892804
245.87719261897297,106.38382178264463,0.9837320362648816
-97.58681079673444,-14.88143000718665,0.939150152227968
-92.53023994262651,123.41167725773177,0.6192901298194451
144.80704845890133,162.3766141319342,0.8372094994842785
-10.102795891706204,-67.22434144799824,0.27878213722655765
58.30184165543124,-97.47794725752897,0.49464945016426
-156.91749599467636,188.91351603573824,0.39180666828668664
60.95332874560413,-63.13218334128842,0.6580003693869679
41.57719303172972,150.98896353934322,0.9949248097535929
-57.18281654999281,21.51539852228963,0.3812007037818098
239.0298236690314,129.5427707949353,0.07199304173297327
23.876394145730035,180.34753566392067,0.30871794119501716
-98.17200239905941,-96.10823699648675,0.16740087558293926
-16.130839022568953,-5.766959998346262,0.9440092225961716
15.787415275086142,74.67041041149459,0.45584478558886654
-44.54324194371061,166.6932667378081,0.5191916125769551
-52.734837051810516,-180.00163047162104,0.7282832837482233
81.13669409187045,-166.02290566590756,0.686192620794354
25.275494751526654,8.759280672045833,0.5045714310588828
-111.64266541122731,25.03354378652488,0.41616318327760826
86.60642940771626,-86.57042467634804,0.4517129454115939
21.459556936964162,-44.1619818217697,0.9848775912511687
122.88920636313034,18.853249634747954,0.03894982227052901
209.72151540577556,-80.44968041011661,0.07546900064044426
17.54843672536603,71.28813627166298,0.5197133885162538
-23.037956240643613,-117.18167191025326,0.7810163481142746
186.61579212192433,-122.74521612695185,0.4718377394636325
58.41149353601711,-134.74983383405103,0.2616496500754425
101.87531061698591,116.9383649049651,0.964844741410266
80.93572615083559,107.42489672110125,0.6822523041260659
-98.13708571083978,74.35165131944437,0.35415096109783606
240.25477269222355,60.87827281050667,0.30279558693350583
-83.8855452577652,177.205124227053,0.9039366071712636
84.38364799581612,-4.819616090853553,0.9091910776498336
5.763511471349106,60.1581210960776,0.05124768058603413
-18.24378594192582,-112.9632162156535,0.6255735885118383
46.822314070184284,-63.40994677352898,0.9076800631745927
101.67571945539903,123.35438601506368,0.317796345439314
-83.52263499540243,-34.57560608402173,0.6310741643538732
68.12318749150712,7.939253711479852,0.20981547494901565
-54.84261692796672,-59.55765583476884,0.10900659224080822
-0.2532975430316318,-114.14560040709443,0.13057016779967157
-49.8520934633462,-75.77830615048681,0.8876134054254134
70.98835967494017,-6.606542867411871,0.7349375713586696
-9.756664974353752,-42.332579455003795,0.14949904385414325
-49.65745431690067,50.59959730079739,0.43008244441574617
47.25194648716926,43.2841516080379,0.05721337901008827
-3.4100096568900984,-108.03955692729326,0.7822406423616407
-89.05134535846469,48.20337093327867,0.16128889976695904
-120.34620517662505,-7.845235483067077,0.49529000270272217
200.73213491364595,-18.98695650168594,0.3667874474203102
-28.61563057162767,-12.304570309582088,0.0016901188285456392
-69.0325059375815,-122.88247218563144,0.19181111119114347
-164.99029671217426,-45.66462187066485,0.12209888143267067
41.616135606001336,-3.8440991050959465,0.04131700927505233
20.84562753012814,-213.31991613834455,0.25348178119376075
57.05311326967218,50.299491898663476,0.7613882665594931
83.26396465621532,-69.23831758250194,0.09326520230278834
18.910827079936368,10.748320282677525,0.4998033479607623
-13.703233471734254,18.341480519041728,0.40258937975142783
55.609178605884914,-104.3750544643453,0.03497812197115524
20.596619919747628,-27.358003321226093,0.4664689159737978
21.46075083009753,-169.15558086694992,0.00673126659011547
25.95872695094506,-133.5391252215247,0.7018552600390418
-79.579243138665,224.958640152283,0.8463624272539463
9.935766282328604,128.70666688348186,0.982390030848549
17.608851666012328,83.38777725237807,0.9542549921173756
-53.39742037762143,122.65711247616767,0.7435545678636588
-73.45658192620972,91.24138792169285,0.06411846248444097
55.75195801492904,90.52753781842416,0.0719518940867021
82.92793506256893,270.1360396961704,0.4594669514583135
-35.01185752416969,390.4258003671422,0.25238733736618524
226.2975804781545,11.782087930746533,0.4843690170925915
145.11522894012506,64.49471860964266,0.81770588841793
74.97917641675977,-139.56759154293692,0.8793943133349593
47.376918929571644,-100.08111736702638,0.11729058394545888
-75.56724950368874,-69.8666732391648,0.3925531862377666
-50.39403012982081,-183.2567389527349,0.19448981469554694
36.30831744022879,-28.589213260031602,0.8153167632458012
-238.4571948606699,-193.42213687596862,0.9036417695531087
84.87207416759335,207.01704728343552,0.6505676371521256
66.9538015220516,-97.02848612012428,0.9763053230418387
66.42999527506288,256.48694198423925,0.4449280170894605
-9.798431757308856,108.7583986491856,0.16489237620202157
1.1063052239597435,-30.27454681071641,0.9525479832122082
167.57387053436042,-91.51033201503952,0.7654491671642621
33.98587540400838,-90.49122871178027,0.543719806289965
190.74958287863032,-7.219417089252437,0.5885349137573416
45.6918668415706,129.93309847508027,0.7741534486325684
68.8970168254256,122.33007197234078,0.9033204993371707
20.53827734093525,-20.893489758675216,0.9009279858964007
-94.1914576145201,-66.15004926964568,0.017348084088188997
-77.56754262171664,46.89833639656943,0.8372457629113009
-32.57770499157056,-48.85924455831657,0.27527971491923764
-31.434141376759257,-25.60122178304367,0.3033909043063524
-182.23392565417325,-25.502633129484952,0.8350383924202694
33.67566951265453,81.16362835558738,0.8372488608709708
19.61136000645063,178.41238468227354,0.5577305868638583
-202.60197802125552,-5.247415046446711,0.7365159535286215
105.25031624725847,6.463795592205687,0.9184770376597787
14.604579502008914,51.71782956974668,0.8344440032159359
61.197152496354775,-117.41723004505373,0.16960975704617165
163.00149104963836,150.57604447650849,0.8877573896889144
86.46078334301896,82.00966777354988,0.5189755187200652
-106.93461571766667,28.37118460572971,0.07250658806489618
34.42761959978566,-187.9686075796699,0.07641050374662728
134.24687077184913,-3.4897098680194394,0.5468417605535636
102.72847842540737,25.022684389184423,0.4903728794499347
72.74205077111048,43.472411659182484,0.9546534803124843
-28.495035576710087,-79.85258349233689,0.14997954272410874
-124.88902775939961,-22.786923041163252,0.3865532061150665
-65.53711392237157,-51.52109203022126,0.9462153717135205
-12.21465961010471,73.6084974948746,0.034265769734456275
-126.19224636138458,96.94977040545723,0.6562294655684981
144.95580743286646,25.352034521959204,0.18589058412908133
-57.87171583091484,-15.123984857728251,0.6425922457561121
-120.77173960914016,-68.71728438123883,0.5352093763703794
-103.52704363922341,211.0917882900437,0.6591335553296722
148.81216532406327,-71.47983856951319,0.5716145466773601
122.70453733349053,-117.33304531759494,0.702287736036711
-62.685662952018085,11.207197386444667,0.622438067383367
-11.070885066195022,-56.562451774984076,0.3765330413954069
-77.75187704543353,103.41044634458088,0.8180561246060377
-58.02414740108516,25.11129133464898,0.4153765713443134
-138.4663793502299,-56.64939535600263,0.5981766803359984
-55.29195163789152,88.16256191254695,0.5270974084600129
-2.77164398110718,-51.90693625774521,0.8926197518034813
3.470007143241019,-76.01955247402441,0.4100050496799964
-294.36305015333244,106.62885271094997,0.7938360817659244
-21.897241630503185,-30.145545197968882,0.9627839322084787
35.480579265037875,25.14913802499429,0.888201198426073
-131.83732438925716,12.506652160829395,0.10829889469650222
-41.67482558867194,91.89959673495058,0.47521603541021085
-19.398017600543913,143.54438118683876,0.8776643585731787
19.88475223937109,-53.30050052372872,0.8467394682387186
30.405201954265838,-128.48014050861912,0.7012388356394389
282.2336168153973,-108.46937516677299,0.9760079070369199
152.25581389802963,22.02280855120091,0.8589365616846389
-19.78612910669196,196.74161115601535,0.31004353074462754
15.114560344431748,36.61939721596183,0.8762099489803656
-73.8619294714222,-30.491460700205664,0.341004136692316
243.00148066424606,-198.65679037423305,0.18821509500171618
-185.28352677533655,-11.161710087283286,0.9119334209378079
173.39557530410647,126.91918293052045,0.9367857530764165
18.89651753838122,-78.99466757143935,0.9940638001045977
53.518957324332426,-12.951860944449761,0.5298290947240781
-38.214436610013664,-33.814628296125235,0.47738690743806667
81.19837932989707,216.5907538501523,0.5734941266044192
22.068285843307446,114.98327773577017,0.932815920505635
8.12910235521293,146.8229017419502,0.6318736957066758
-130.11957577950372,-23.729755543565126,0.28255954246464055
103.94543612785559,21.29547945930669,0.8079794314830182
-91.9999748011262,140.0952356353406,0.0563437101017914
-163.38817773234473,-55.39290753600409,0.7112208519861938
8.06513695880385,-23.4743965503888,0.5286351720011037
79.13900022724081,35.641629943252276,0.39684271878566235
-5.029372055538812,-97.39593739998799,0.1877363739767689
163.6028152873906,-49.67546007059697,0.3199507903170954
-16.519449026724438,52.33544058837616,0.5354665079251892
70.85876295370623,-98.95540561655396,0.7017773955248334
-14.148481078641487,14.514955754771627,0.13272538816044677
-56.75220349130574,-70.14132805271653,0.947329917584845
-56.71723397109517,-122.67680470649596,0.6547031815598894
-27.716788048834935,-66.73541183739215,0.10040705033246844
-49.38596900164951,-35.2228419325561,0.46091114335000316
-49.13164872851198,-9.976234013724849,0.7244205981442462
-140.02097615071028,54.95361043910113,0.13843539807041205
225.32255724940327,-75.89063193503647,0.9104857683423566
68.99946352034135,-60.299833058132556,0.33209702247071793
186.927441578646,88.71466977236007,0.8590283868849699
108.5865542320154,27.35482314068757,0.7266699195624942
81.29923471854018,31.606051003868394,0.765690210698851
-98.42507746849921,-46.95980666246229,0.2491439229076814
104.52742774209757,-57.49117515324733,0.5373854717189736
39.1320642632943,-26.20876684031057,0.5707223717357458
-46.25250194026256,-7.586864098585963,0.9603143336021975
-142.56476886931645,-29.454420309505984,0.3337672967746521
-10.886946821501562,-15.167625619789755,0.6098401754611534
72.80937653753845,-31.18142274855632,0.8457696643239405
72.66258922114879,-103.6883062869478,0.06432412784244679
-98.91361196805316,35.96893307991725,0.7887676539845339
94.31681298068366,-165.49876531162585,0.09281047258470121
182.48844616277762,-120.77899245844314,0.38224433704647776
-134.19776069092165,66.27838970602829,0.5673375586719965
-193.09079745244878,-50.22388200125817,0.021558715528343986
25.54058591222233,77.5127015620708,0.07291901037452542
-55.99537424936647,-129.8358152079851,0.5894499508398735
42.11439253933227,100.96902339981087,0.32482521085321225
94.94875230083186,-166.66978867152662,0.6978999406677626
99.37741134493409,18.666265013110724,0.3030346233875565
-18.289627488615444,-187.8636907636207,0.2212249862543184
-8.081730681005707,-36.346346918231646,0.1424311736415702
-103.92882251274864,135.84658904926533,0.32679151268585827
-89.59066841279261,138.9462271466337,0.5058534657007329
36.920285986256154,-21.42954881204801,0.05711896046587406
-12.301092414585762,-194.63489497645804,0.48506973385250907
-31.883681396530072,4.0677069852286785,0.7969257549104911
-169.10977116782948,27.507555013389524,0.38255410269592116
32.486072579221755,-133.51552468134508,0.9356786707440722
15.005904137546816,155.9876149625045,0.2971785600770205
-227.38258943744296,39.79893472630183,0.23613060635824878
19.490013843398156,-84.02098656444616,0.6939213803776744
-42.472875958266485,-57.93625326774011,0.5584155212468392
-91.4687239246889,38.53413659854492,0.90291176769136
292.0089033583666,-146.1027026075569,0.7098539141354734
-58.645811404612914,125.19747686627503,0.9694740054154759
-98.63605534054388,-48.355140613996525,0.9984809874208924
189.79504290989314,13.603106278066186,0.9976422775283483
65.325032000683,151.44033376028145,0.2121339362060285
83.38561573035642,10.827749022326005,0.918617964719278
64.53830781410342,61.89418771618791,0.8685581513591709
36.18338504360161,84.44020369202907,0.4972536053479707
22.39745356416142,-62.73249887891041,0.171503510258453
51.367741944647385,35.877181963760385,0.48777866937227377
-1.85518425232045,40.368689686796,0.08679504891689205
-109.28053340013837,-124.93734418407392,0.7362208988689264
153.34308152574914,-184.83148770706586,0.27053233069499316
59.53721872541698,-96.27006465248652,0.24417228589268936
140.94041491753032,-80.18517340874438,0.522846500303263
-27.346292083921885,77.35937881502805,0.7898537416145337
139.77241680978202,-299.6217273023524,0.609836521167387
-117.57368131683141,-143.47200659683685,0.8354110464876459
-90.8373727209114,-136.13360882279773,0.5758085067312548
-23.266022011567337,107.90408888396283,0.16114175800579422
-31.342733787724512,133.74682226370163,0.2525868564389572
42.19156206857437,-32.82042054973544,0.795566443619006
104.63257210469916,3.6590699162195888,0.22168877785741192
14.203205185551262,-165.61011448824195,0.09813558716366233
83.1837972202184,-65.16200464773864,0.5094232754536704
104.89122559920459,-147.3169671540222,0.9963254751270978
75.62595016560164,-83.03971899559092,0.015957381035855533
-63.78056986314444,-127.3399605878484,0.2509029544779042
-52.612296687348504,69.50216003335191,0.3603290674503975
-49.36148095172888,185.28129820726718,0.6314037110876999
149.56274565690987,-40.82503178878804,0.5430823819873173
6.509135925834938,-16.28848467713044,0.10962220540367329
102.283952577746,-112.30260010643957,0.9894180727831711
-112.73848323938273,-79.76896611038646,0.20156780641303873
73.75461976599821,124.30822403347001,0.9074918800944434
41.83601992941938,59.238113565369474,0.891096664031633
-119.00660498086728,100.12082311969993,0.9698198009498147
48.52344698106609,-7.931835030653897,0.6219073682787355
165.33862664968814,42.041776561764756,0.8317901800633479
122.73511718968568,-125.49418061603839,0.541978371518207
-117.94021325040254,19.43041465478186,0.061074805882951
-18.02446834085704,-74.77799419279168,0.8748643814657581
-167.04712100090939,-4.082831191860082,0.9357717316043117
177.41669234828638,-172.5710011300759,0.8222794875706722
104.19234229011603,-101.25394962266925,0.8425669293459013
-19.599662090517754,-41.24874079808322,0.8150226427258909
65.36544661625405,-71.65285949347833,0.022741563894965844
-129.02067737940135,-38.69550981990822,0.20078350886428642
-129.95724226756477,-43.02783933951961,0.5027381034999718
41.73237866287525,37.697792554775376,0.5434421532287449
94.62528104366051,-142.78059337719534,0.061960622456581405
-142.01282814755146,-68.37006476686115,0.36376480375395215
80.48962285212261,-28.521120248131744,0.5572956712001769
14.852775452384877,30.877352456769547,0.23878833151125556
93.29696444272568,-71.17931644869537,0.15571275541048524
-8.711273188142155,-27.283974307598257,0.5748746696690711
45.62040056287196,-5.700629701187303,0.2180286590894399
61.87012234946941,300.33548296815604,0.431498132145685
-92.28167247741985,64.81637409530457,0.3102542051296504
-212.7798980015589,-124.35736201682512,0.4574118255494618
24.98698471195486,84.35260237413848,0.7794743381935855
-44.00340095550153,-86.6278787528962,0.9144251247058536
105.53071033257896,-103.25432971069226,0.9837572650895102
23.628631320244462,195.4602917313432,0.24337689338501067
-35.584593290272295,53.588379213158866,0.4364472164968133
8.980418378421295,-2.145301034459237,0.43017347105000303
-32.82169434784716,25.60058600866079,0.6294642308498852
64.94922547447482,-60.91164353107194,0.42904035748097125
-73.35449282214059,19.314968746423805,0.17764498794946193
-150.5238994300062,54.022004136423064,0.2561828205596721
-27.23484142389922,170.71531595686523,0.2936720323913894
-110.93670194719006,39.04152017521248,0.03618102776387089
-16.46604789655796,-255.34118518723278,0.07857438244064541
202.5732204431458,10.29609125591788,0.552908993154393
24.48769148791083,-217.4911447601188,0.32247761324166013
-41.52092883621285,-41.27489767185018,0.18992806759515035
125.23062388881428,-8.359105599882016,0.9672265798228207
-9.599924864158929,172.28872012760124,0.0807000403889363
70.5236419315883,62.72604238709349,0.5975073663888608
-11.848160162073345,-35.70732829744912,0.6878870164376782
-115.92278066286461,39.68618029965608,0.0027286395282069
223.91963254345595,80.44661183303333,0.39539069336795574
-17.690859762330412,-62.274958892175846,0.40192585122968916
-27.14366779749236,145.33391669854038,0.7896350271375902
132.0185122694143,-83.91005788841002,0.3488946571816093
-64.87786283872123,18.94325975430771,0.5172516547760457
-147.89174330144047,-134.47821823522102,0.9528931564444837
112.10238122638316,178.91876194636694,0.27955442171082223
-169.38200615379074,25.501581798774016,0.6491561263478932
88.63227012231016,-168.236066516349,0.35931040540651293
105.84653747228417,-17.000044886760033,0.8379165916920764
269.60819709183295,-8.803820789566727,0.5722045785835921
98.39859258046764,102.4829192409082,0.85925927814635
-157.93757640538462,-92.47097047008076,0.07073396061494919
-57.088449178334876,27.48009308255568,0.3105974925136167
230.8689109516636,-17.52816079214061,0.26583963071479866
-155.03960161679086,-297.20179261436977,0.5870859828779744
-10.45200326986173,125.5020349786851,0.8633963098539726
117.13112681551965,138.28545251145846,0.5916108549146357
77.42047014548665,3.006148968769926,0.5499794850983839
-208.54917341428396,125.92816002220854,0.05358945067338883
87.09574926643396,-224.88098683840798,0.7372667242932509
100.42782843927307,27.831007561807308,0.06889484899466736
-31.883925236598177,23.75252287254289,0.28531320880955524
-52.66617659617157,-5.117888406517944,0.3626239986798224
219.53136434125744,8.759905464967991,0.8803292112298169
99.06986528798666,-179.73248924963116,0.6950165663879512
37.59484956492986,51.303797403999084,0.11319906007038483
34.744428976236776,-205.38247230919714,0.5380300245028561
-141.63535017798816,-0.5070397418858086,0.7460910515057703
-111.04615684079423,-71.9153718343523,0.8351486078776295
-195.41427646827708,83.66076881811185,0.16274774507360235
-61.92822327028408,132.32872467185044,0.502045849996877
222.6406046945458,-230.95604048184492,0.46595072779852964
-8.78922365295352,14.929307982475304,0.24525629758771628
-15.731470613550217,60.28180012869914,0.2854348929151137
-18.29043242404872,15.999823053122203,0.8288295139026823
-34.76678878274842,73.9098867115899,0.9535753397257835
40.256287690130556,4.704861084488408,0.517793469593326
15.284659911177528,230.2063173422407,0.6844104476510569
7.382345538356182,-34.261405075548886,0.6361034555101639
-48.40669542686861,57.09684022454896,0.09459387737172797
-94.94088611602976,37.506776629219424,0.6157837011099029
-56.062869364783474,56.40742107049622,0.8638657754998127
125.92341142460765,-138.16062577948983,0.315874034078525
47.54924249108355,56.834815260246465,0.2960400656323744
96.21883738373327,98.2665738188951,0.8731613874383984
35.24492502300767,-0.5427740528614557,0.09635568632844516
68.66037496523386,125.50759935407818,0.11411309788743507
27.637661841128914,106.38400697160479,0.030780117599542467
-79.36585794591393,-51.72382563338297,0.37617950493722563
57.87284837317508,121.5437408629672,0.6568449003284759
-17.55198954421859,-112.03645051575752,0.9645974552864937
220.28177700967268,46.34253142369554,0.9438541776731634
-102.77511857744328,-44.262740701218995,0.9003275696526859
24.3037147486309,2.845433012057656,0.8714103521143874
127.8120881180473,-116.50551233204843,0.46444407103219865
85.95509075678153,-12.426528503762789,0.36848865198271064
-76.55456606860707,-18.77344974714827,0.4707733928121709
-11.919261498845882,-32.013237726459025,0.07503575071220625
94.08096081430057,19.58111589409738,0.9981989731143157
79.88320561256741,-99.3346999171472,0.21474818603268775
-106.49176834712124,-39.33443590601893,0.6120194617252446
67.69217070894031,-65.14744481186422,0.31621837905103
101.78781626991413,-31.807256531152596,0.7289180089755968
0.5592936534739986,-85.34454891896317,0.6054423943045292
-0.21413929993429004,9.440327641292079,0.8590003611587046
-28.69327828531697,12.551955063781413,0.5125095518144185
79.80947705560398,57.103444664113866,0.7606229545449467
19.874429433198742,185.27124130373335,0.7044629131975314
248.3739567676367,-2.9455958038354764,0.8729570883038661
96.14916129714254,-68.13265865715795,0.10745458939276531
-85.46483632040452,-110.16160896436801,0.1978815445238178
-125.45163596482953,48.88353716600386,0.030371949859668845
-125.90981540729491,-211.99305529624044,0.9565087391291112
45.69566087706342,248.55063327794883,0.3336616493643003
-3.6180097620731413,-48.55533067998384,0.5104685355206094
9.846361669196355,-110.29922192983803,0.010126183339128847
10.06054297573543,50.808987249811565,0.1440859121787239
-147.436262422122,139.45363889417013,0.03961332773884518
-235.25599006728578,111.56282357026758,0.6819071216844736
-23.71736193163748,-22.059037874924336,0.2271253593112842
-117.98000153065966,78.02450874882258,0.2689500700655364
115.51695231850798,-11.41732708760078,0.7922034944574657
147.9979937961943,-24.187313575358083,0.7269492672438713
-81.96200016280692,-143.5815997575041,0.650223577847801
126.63141724993558,-64.34267271539144,0.9757291290279387
20.274564085796356,-190.1714837214605,0.6783320704065062
118.87076028841096,-138.85437511421864,0.7152425552909245
182.13741505105418,-61.85821480930211,0.3685624007885492
-192.44304186015867,-52.59166470378557,0.4004382892815551
-164.3305665458334,284.38769691926655,0.4075250864615202
-78.19464947649904,25.0825527537909,0.029382550354792536
-25.073998322929214,-47.752627216209646,0.7260541318088543
96.3670864472811,45.21517989323623,0.1615818248280031
18.09894577184326,180.50189244818546,0.5719107945320908
80.50689738130339,-61.68282822924552,0.5811118921501791
-141.8719856912542,-30.219721153702917,0.045223189388651996
36.50290452432808,52.582982475349425,0.4133721457303726
-16.670368728575554,140.6140336386945,0.636796741744178
93.88215300130202,3.285962026237084,0.5296387926423374
-187.26712871723882,-35.59996683579874,0.6457935811357843
-137.73588322719291,167.51899972890416,0.4225330445844564
272.060750473009,-130.78844963227925,0.053514167017535974
50.28165435614561,-10.877072797598913,0.5017471125180931
-95.43162790687731,9.687540393622458,0.08222981646311645
-45.761971530512525,-87.32905407380527,0.4779569191901035
7.039911267597776,259.5422994005951,0.4432359168322274
40.063752428446236,146.5392694300769,0.7747551146789994
-109.21854390257852,131.8131254177035,0.9074486189858976
-44.62693878793887,-85.2197257278068,0.09278899563123488
-63.44836154670935,52.17271412455564,0.9576443547247617
-112.98509977137721,-151.19957153141758,0.03579002288647981
-23.884717780557747,-49.33257548331452,0.38700542755345946
74.41231935545876,137.93533833043156,0.6214831690776069
-29.72543379890079,30.655629691290585,0.9099304205040054
55.827637604205485,-5.238529253245079,0.8412812778813774
-55.14682627267793,-50.64863959210404,0.6098070426446958
80.47054490381542,-80.74131175569924,0.9702542107787941
17.159550098435023,-103.35847013521659,0.9100201886429652
-78.9575395823369,25.024965458972826,0.967431282010069
-19.783255695280115,96.43657410354298,0.3378675206425703
172.96783780146222,256.9401445298022,0.5593790555223396
-67.51936952370923,-70.82068712890698,0.4206807589013991
-154.79565929248096,34.3548105771508,0.6435294470939928
165.78903648365238,21.984361522921986,0.5682108356310803
148.22127151896726,137.23245117085105,0.2856073720793514
-55.53854745199263,105.28821331658568,0.9456528178082309
40.93451434701507,116.34127460738999,0.9651862500700623
-61.10108631772888,63.68399014140345,0.0661165289578981
-140.55065427606516,-62.908905790651694,0.8428084284713614
10.577146995294152,-5.845883778133667,0.675383979770485
58.78022575221718,-17.701113295684088,0.28571726850054335
310.2836558746936,-182.86326343652485,0.10746955374040557
91.5917214639252,-53.1273215948207,0.457584512617902
179.82127166908396,193.64984642567845,0.5494888586590867
-97.29931323172889,145.62887942165793,0.020592101931248163
-175.72419128568936,81.7902117873561,0.0971534925746016
-117.51501076347368,47.70058993804559,0.5859084763814542
-31.258243912206336,3.176735716406024,0.24626686542595788
-76.7317229234825,-20.143111423402804,0.38989326518005185
-93.12135823473169,-127.60679835428644,0.9590514419881523
-77.26109168365045,115.22581125730173,0.3069688787269491
-85.13461677523749,-0.407487773451869,0.43990683075450365
-70.07203547819945,79.75597281949955,0.17045376697949033
45.67621729926739,-42.94047549788945,0.9906138146654402
-167.86058660387098,72.96727650539864,0.7866160108105189
-92.94291459231574,-191.4851311422542,0.8872175298135903
-27.095198231011548,-27.246725262861222,0.9691773482820043
-22.749731195451197,160.1296475066428,0.7526234320547213
-57.22881040878101,-113.76160423469479,0.7949371184223879
103.17254729814186,83.5075706764694,0.7861873869846364
-26.305239015918918,15.255958314954535,0.72577672851441
65.44693568171427,8.94727986843719,0.7426426727173091
49.23861841859729,10.506509962084392,0.37941412690293874
-160.8478177565586,19.353555614834463,0.2736916424082604
103.84613878427314,19.177506281364153,0.5286995548193584
-2.2758873923917315,124.40507754139034,0.3126964216721504
45.455453096360635,28.707379954286715,0.03968487122908515
-143.16734753737984,-40.84964688258801,0.12979089676781552
-7.360929179680022,102.58309378381666,0.44751070216360544
107.39915647091895,-35.127268777420554,0.8260064584835012
-98.84935367460876,102.75753874696218,0.40712585130117007
-124.11588362953023,46.953406235930224,0.9374965982355844
85.49851194799123,19.694001515526367,0.8936330347054872
-47.47333168834454,24.435809015390273,0.029555043786387514
-42.808933440408346,-19.332389385369368,0.8960526155764805
-87.50887899381749,90.0922672055128,0.07668254597925894
60.36174864189297,-58.88420182898817,0.9548262561141455
-129.63801213791305,-77.58725881908279,0.8177892624498209
62.08957776952103,26.91949689005494,0.7300616249844676
-31.374592148720403,71.80003152828266,0.7947602191961965
-60.60514593608012,-81.61174599535657,0.21963759246763725
141.11278088258723,22.245922464377703,0.22277159788480017
41.588795987731295,95.63825521019346,0.1568501484691821
-85.99479097638614,91.53900946837507,0.6885028108198964
-124.33099927517888,-31.481450278041738,0.3924660412767417
-19.732774612015916,106.02422304551918,0.9795066931435941
-30.08173291762153,-155.72666806391234,0.05546558794909917
-53.93652061872055,25.12830374945957,0.028623033844335732
-98.61537116647226,-53.65910257892639,0.09769599411953966
87.32408260274512,138.3111953530148,0.05162025707362261
-98.28991538609566,63.33133038720627,0.0890085514627944
74.37334879405509,-81.49310973397671,0.3185054368590463
-140.15777354613138,-123.66285971797022,0.015476940433973407
37.656172207084964,-60.76179285058036,0.6730208411383773
-3.556046814238551,44.23965837245461,0.9353349908919143
-79.71460014221073,73.92268360973203,0.9896656723656253
-8.095503700163036,55.50818850972161,0.4046251760364815
4.5961432754599745,-65.5254091913968,0.8713100106787055
-30.34647966436547,-12.005768034508353,0.7868273551783052
-164.73561495243504,-33.5202058209082,0.5092251639557452
24.326627332724872,-0.7582839703545777,0.2705468541862329
-131.97068004945888,-187.27488000323513,0.19441598359217926
-185.1102419179569,87.20179428653832,0.6759812293615823
-89.00080345528416,46.3767927090623,0.9723824934211566
-113.05836124126847,97.47886709947079,0.4603457389578508
-60.29813447875455,63.25651571839303,0.4847773032951066
-60.70254659724157,4.4046549196028595,0.03897915791249984
-35.954929416442525,51.22760870934322,0.37792324461671534
-77.22761370668152,26.27516320218956,0.014694693134377546
-61.54872314090942,-98.43535298217334,0.5597915921823047
-93.07920288418599,46.80904361592733,0.16058121813459447
-41.97395803869418,-157.41418131987103,0.8201927906869344
48.816212703355504,-180.07178374818614,0.7023157877738136
-50.12690656819837,64.92572129583843,0.8173097298508076
-82.23211183704208,-33.50654446492855,0.9313980740082591
91.83496029814971,110.77689030676862,0.9088619836624832
40.424448405925354,-43.90488388448964,0.9350441416739513
248.07944943733244,47.45905235309875,0.09355464334605368
61.0289700298206,-14.890103182788057,0.782070831474921
210.6177128594929,-31.48709220165939,0.42420483239996676
-43.03219255605883,206.21372773760106,0.3625381993882567
166.4048358292441,-101.73995176258653,0.22911377776776265
-56.24943746164022,-34.49460731318077,0.42608501990462455
14.056707545257662,7.636434156446553,0.32782191176167763
-102.01231192195606,2.3266664579661094,0.8352916026648112
2.10311034680408,39.51266655828136,0.34781235817174316
91.03305985478332,-155.8782246094188,0.5314174278489141
-215.7062274433986,-188.82025009503113,0.06214496710159567
38.31223547685935,31.843670354598828,0.9971617979830494
29.346393966136556,22.30070682268391,0.8963617366680201
-21.446188572116018,45.08236465891491,0.18129082030820176
163.2527656713226,-114.45579838954436,0.4960969182777424
41.672380912465954,83.30493909967328,0.7715645225752474
210.26035880288129,1.8099686321536617,0.08191206749246949
-79.25528863768729,74.15332530028842,0.9469927968678299
24.50428251337822,56.24732030330911,0.8949453919408664
-6.321729071202258,-84.73085600426776,0.10175658382335206
-110.4011284410389,69.86448148162941,0.8625410558130632
-42.127990817186955,-207.97531009095258,0.42056149675058274
153.6194304378613,44.893627171033664,0.16691689327279502
-132.65265708991828,63.09197124309367,0.9164739689081736
-140.26437633052922,88.84853750897459,0.6688942331168458
16.23973164995076,-11.9505932339452,0.9361884153115708
227.28663308587826,175.1730846104273,0.3854669887978228
65.29171168380586,162.30408118029035,0.019460787651291778
62.580458655444524,62.31027633661134,0.733695782953381
-7.33945341895961,-14.16701872158527,0.16437898664907058
-6.043733262922884,15.261616775287454,0.3652265833044466
-111.20555092117182,143.39223870281683,0.9083657170908245
-51.46907478511593,277.4565564873382,0.21036751064521553
-70.08241302966738,-15.884728737126293,0.5517686906669395
-1.4973354808969408,-7.801228571570523,0.8057650131758406
-64.52178389500469,-108.79427543232403,0.3021208260862739
-154.33316077699467,-297.65461368903175,0.7856434528712206
-6.028320441998457,-20.157948650454248,0.9379842405462525
-19.862621668495464,35.29245834266709,0.8164965473756227
-147.18075743243443,23.810307292318438,0.882135769279099
155.34238664635265,125.06986853115565,0.294370060517389
105.62670857321046,-5.675380417394661,0.056573414530551536
-44.32075493176828,49.851371169079215,0.15063930828466576
-114.95016321641805,-11.43092855625726,0.1582147346538899
11.121531759475628,66.7939205363573,0.5892024615864505
57.4361030318393,-78.19850063256689,0.06408622729733415
-83.67296614834255,-86.29928902363486,0.6745542832064109
140.35875878225002,34.07958383222561,0.32514632842695057
-103.55140344309729,85.97133822806296,0.6934573097245683
-127.63926922194968,-192.7770192080707,0.34155452658453545
-157.96831436397244,44.280209606242735,0.5049816923940946
-103.57731872460066,-125.01124800679253,0.37156916639135684
124.14429878204723,201.78353867360536,0.7216634133419226
-81.52425769160556,108.78747101901645,0.9682459809241696
-120.54607518261933,-79.03919374206441,0.938558879632652
-48.08186927233152,12.824695370565179,0.3601108807818695
-57.08210475100833,-26.460313511055915,0.80502893507929
159.33867605266224,-217.0184698542418,0.8308006606719798
-158.19876516091074,70.99705730418208,0.44723878089547053
-117.7378466484778,-68.2568532749692,0.24380891267954952
114.5921669217615,96.95502835218396,0.7341645831359308
27.591859670616152,-86.11967165046097,0.32765475257151666
136.23820935945048,163.77642708098296,0.2735462145621297
-81.79549943031284,95.98433988630957,0.9160073995825257
-21.38806862593424,-67.80913807852464,0.6072864416521538
-180.69391789856488,-129.13689123224938,0.530567287230681
-55.19543844521421,300.79519900436514,0.5241431146887788
48.20215052627924,101.03269117664789,0.6056829074025838
-31.55760570429338,-39.03065379094843,0.3682736660828738
-121.15183503419577,116.11282032754862,0.46582664104714544
8.773221621479879,85.82615386083702,0.9989856595797584
30.73354279494313,16.056266761430603,0.16042328849425747
62.68161347416451,158.6070003117847,0.30130387819959714
70.97335887287055,-66.91293019448169,0.5447643011667845
-38.94621418943084,-76.54714230429214,0.046228171540653396
-53.83909691687624,-112.22347598757946,0.30627056842569544
-117.13210411231974,-54.18900378148922,0.3579552749055096
-112.44325827971518,-104.28511434262634,0.6237161483066117
239.58969346574764,84.61746826934147,0.5558464671114625
-4.719401685274489,-79.86877440251789,0.35891192206738143
-299.7637767510043,-95.10951859801999,0.7673477008693459
-165.54682484236724,43.22470377599139,0.1605621879139283
15.460005046700712,-37.76630989070182,0.030837189186417424
125.43184213426551,-204.18139913019542,0.25058172101060894
-100.30494104299595,-73.00005521058195,0.17820796101051084
-45.70919115715398,-124.45625654240564,0.5320315619795044
122.83158084975345,74.25470346200429,0.14083005841972573
33.081670910518184,-103.30037480820509,0.24366708953611838
-41.27890986886456,221.17730762288429,0.1807834097073321
-42.86725712769971,33.42372878433857,0.41206947347795975
18.168448547017444,-28.380030403423017,0.1627275106813234
57.82933284468862,-49.42796283478306,0.9793060630027235
247.6496877009391,-55.79201672895334,0.48000077137509845
-115.74054324835504,-8.86900898786008,0.8944164669957817
-89.83559943951475,88.08697597752233,0.8148078671643811
-155.49292569043178,-67.00726911933141,0.7525824125664413
-16.005431440061997,-126.06709490567324,0.9250081483255138
54.34264429177138,64.15570739243998,0.39328898772744125
-36.576878959389916,-57.33602756564831,0.05912415853308495
50.03585271199853,124.96700374741935,0.8106458707199901
-90.01406978225226,-41.829362937748776,0.5180319291811157
147.35496620990526,112.76070065089947,0.8199533049120644
-12.009956413306885,-1.194974928270591,0.9851594920316029
-46.58589329985487,100.2774042572293,0.2213153396202867
-25.095592714086717,18.49100534958698,0.7803670040390379
82.49696181305129,-101.64180172284787,0.7138218479035493
97.74236412201914,-161.20020770501364,0.14120239911972798
-19.75808137917752,-16.064140625186894,0.28042647237478346
-107.62329465548481,-25.285597442259604,0.10687292420181582
142.6931354097816,-16.61599720852825,0.7179712413501467
-78.49080787340485,90.14541442799882,0.23079178717022408
-89.88602448500224,-90.32751103685912,0.9280096807078841
-152.645360676284,-123.21642081977863,0.5328549014152532
-209.91648171271686,-35.48675595105918,0.22255748113054696
32.07061948240513,84.20520489415074,0.34353213074385236
-12.946249656733421,127.24113773737638,0.4227779196422271
-61.379935972701425,-147.13905190681575,0.6027686674638171
5.233264076435998,-16.891422499355908,0.10529876030517815
49.273197714060124,-52.399939757922866,0.8649985243207433
-63.12680607355211,132.97968257031786,0.21550385221365065
60.50368379571117,3.4547606704777953,0.89683143454003
-136.9569447833176,156.96249567406093,0.9186196507807787
47.55274993091121,18.14101661485217,0.07381639151275043
19.566167536908193,248.929510992951,0.970964146057964
69.27712392532442,-34.8023530732576,0.3103061149231361
-75.68556603495125,209.18422698650843,0.1311439253761003
-50.585025813662035,104.13094677552705,0.7807405650442351
-50.36091217056362,-45.391409521767436,0.8146457513061114
117.12223328358706,116.96114819136585,0.023474768467355522
-183.5397597938107,-133.21830549020467,0.37989370935694344
54.431902130157994,42.30887168747834,0.7346348623407981
-75.46878775993274,-114.71546333681727,0.4925963240416744
201.04647374315778,79.25484042431908,0.25644744165300226
-46.9894275760703,-42.00448028017594,0.8621398904785504
-216.88250400243078,-89.6682919823778,0.4598890798080516
49.46142594252653,57.99812963859576,0.5249003116769901
60.7503988942917,-293.37119270764924,0.28164866073034556
-20.252354382507697,149.2502732920101,0.2373065076255556
-97.2943465322166,259.62451926329766,0.9898457743622384
83.6620092172558,24.22906647271612,0.4299883553421817
-29.12767820985738,-7.880525148123012,0.6358479351040418
-22.92055828001843,146.53334095780016,0.36704596774386933
-79.80599338719131,58.66261701717781,0.8539373270875593
-75.35619994176666,-110.05747918186219,0.016716841732930532
20.721309822746793,-2.1832106009857073,0.5474112404289239
-31.56618755679224,62.04498420631918,0.6617346871320118
72.04739432271985,71.54909874748517,0.5708324138904777
76.30039345964293,-56.206186092410206,0.9436941739874293
-156.40787889793543,123.6615358159171,0.3941691876055793
54.76620747415409,35.96360134613737,0.36110181230327987
23.671700254587158,-159.29318941678213,0.5830216550647667
20.9325815437615,-39.08207364899274,0.6088564144206319
-13.029210999124082,251.82479552350122,0.37483180099148516
-145.77833363478905,31.410540726815157,0.8512223684466188
92.80947354544237,-54.993676906005305,0.34415787500298056
5.785579454716209,-25.168905896686528,0.8470623592910211
-76.83471318051582,-19.22851934034927,0.2957878086451101
51.419958892880544,-87.60173767957066,0.7070157096142857
-74.39264582967479,-223.37785166006543,0.6905589489782176
-156.88846164852035,-206.1396904293861,0.03818142959140569
115.86931098731338,-70.41197621408027,0.5058979649101694
5.937938478221199,50.515007885464634,0.4336467591820595
176.26833215690175,75.63224552088448,0.4979187270324875
-41.231788563057535,-86.76456611107707,0.3822145322995897
145.6584711814488,-15.700625683187436,0.09909773811989941
65.8455664892368,32.391655192688496,0.9209750403516436
42.397036364501645,29.2696511288281,0.5973658638113275
-0.576653632017833,6.050368406708759,0.024095420854881255
98.44656274207793,-14.538143374359322,0.6673724074139865
-36.09154230360371,135.3774078874678,0.3743316132495006
-167.83676746770152,-92.19893914296038,0.6841841949902738
62.5524148023744,-16.081823077040642,0.4736969402270703
15.079132293302367,-18.619127170312318,0.6018039844011224
-99.79868042047858,109.06424654720408,0.9133325033824166
-47.177251905250614,77.79872067421836,0.5321298960054078
-89.60828566760601,62.620764754806956,0.3949077898837162
-153.99164417526302,34.27386260062663,0.7437411133366089
-118.30015377520142,-29.32101449589694,0.18457151642571734
-121.70875008531279,-71.64499400434427,0.9749853220787764
27.05585071737354,20.516704925547373,0.47107749975539603
20.300415000939463,35.75244240278923,0.014805463187286372
-15.69920081214278,-118.4903936454643,0.14035969147329186
31.168580034108178,32.21663685462234,0.7523745380945016
-3.478757528361847,-14.815591564815318,0.333462847089263
-20.35165955443325,11.947504946184361,0.21110144287460952
-145.6354850179717,-40.96913887801839,0.6746459261800116
72.30831872457635,-156.45542790390402,0.38188320411156584
-11.715957772877612,-27.775339333720652,0.07898744123269663
-60.300773733014665,169.52934323969674,0.9395878690510234
-107.92516527941305,164.23167980513495,0.8816713660150215
37.96243550556038,-91.7520194217235,0.6373872600290301
106.11581923859545,-53.007370514781115,0.8469667646944655
61.60690788340576,-22.092968407250968,0.475717494756718
-84.77491063995302,27.251421945960836,0.6298198414427818
173.76815120223142,-180.55666273678986,0.827935248570528
59.81212553705419,261.55536122507027,0.16630481105236805
63.30336831792614,-127.74625971916214,0.06115212998031272
-287.2886511011345,224.07946427248763,0.17766410496727847
-55.700980609493136,36.546735041292635,0.351779993669193
-119.01162721719349,100.14189328783343,0.1614556976583229
60.907129727506806,-101.97171350568057,0.3875830715569738
-46.604075203623836,36.02392149210608,0.6475064167225056
105.34552620070004,53.03742024931268,0.2603168489895582
-108.69823025823526,-63.30479407452418,0.03712427384646655
-100.68391220182211,23.195882363473107,0.8807634385658695
152.14111435189747,-53.34943363743992,0.4763358793358474
24.928298529835605,36.0941367998217,0.09792795275168453
97.66502987212478,49.60661225774756,0.6771489896230244
-45.686260361044425,45.35129109452938,0.6700315145705524
111.08739322928902,-18.057666382835603,0.5949899422845787
39.24262582274772,-120.79505463664424,0.2185697685809458
-169.16399082734398,-33.528467377299556,0.350245859022727
-31.644248577573507,-40.933655455547765,0.19848059529201878
109.67919535662922,-68.44491729789362,0.1721592186820774
112.44485605820091,24.337624695006944,0.19052440465434817
58.80556991313747,88.91328014034333,0.018280353106944647
18.272888191814474,-65.77576792142207,0.7183368472804071
53.40369760810893,93.35845474369364,0.23925803224838416
-48.0459308907352,-1.690616931689906,0.09548507830311448
-25.251727493439823,-103.23848713161638,0.28451414874705216
6.8405045474342865,-40.33005773003342,0.7886386862398302
-57.39135912024218,15.785731952928565,0.32708213386354446
37.060737159081334,-96.01906287867125,0.4213131160324547
-25.79169798728969,-84.60855725930759,0.840658065909045
-24.16284446599938,36.17316154136977,0.6868149500800816
-196.68418301775966,24.700361599635205,0.7577237034591143
-27.771373998794513,6.524974582716394,0.5836062877738433
150.34811778056533,177.89858628511584,0.2763439406241113
-104.22766619042143,93.92581478895414,0.7029317295589678
44.23971770138357,-84.99572841158437,0.2227925295109876
-40.771671718952646,3.750627505452442,0.8530982561095867
111.87633955379255,63.57867402423911,0.014657252797665943
153.91496058071016,-137.89498585057342,0.5214362874531112
-40.985462120388064,53.701287612439494,0.4271699689336259
-110.17770538409155,-41.18178368391767,0.5627600802706731
-96.64416339700196,223.79075645155572,0.7887491509378294
-81.58044928476555,-150.6036757706667,0.5373424719510197
-66.59360472861366,48.42325341929057,0.17897677334717765
-74.22527195836514,232.6239350504927,0.4004724036435542
-141.5841072329884,2.2268384786889914,0.5758879667400209
102.41134525236536,8.029516784669385,0.1594736989565666
38.1803341748723,49.95382646704589,0.9167915621871158
-31.962717024381597,41.03515714107042,0.8165851490327611
-15.185143116769654,228.53197930577016,0.35439078240141353
-43.54688497589018,103.34377499133403,0.023759490114135917
-5.865711385317426,57.78703466022566,0.4305073157566045
-152.58466133631586,-123.2746776144113,0.7819063082157747
-102.8315394296285,5.940371598203639,0.9600539243512912
145.57480646224602,-61.15710836502335,0.26891326787130154
115.0919621679243,210.50883191264248,0.7209073465088817
-71.66230496953358,-18.6493488992497,0.4763630909286164
36.79774438116289,-30.977419388645057,0.5056401431993603
-67.32495248509684,-113.47357926033558,0.5873457656700469
65.88738200925015,-78.24578200453905,0.857631883568118
