37.253135592407304,50.10023469625753,0.9487184381169808
120.6912850905636,-140.94201790089048,0.6407169658260238
-187.6142453349566,-107.08576384362712,0.19879175869738896
-47.05834193957659,174.8302878585306,0.71441559906535
-37.26774544035775,-20.149797948197644,0.6176404053441408
-160.5895808791809,-38.81905028894128,0.6077788536308925
73.7786550792639,-107.47447208458831,0.18356607491877452
-160.35232361160533,23.720656944448514,0.5676524934879573
-160.51178385584706,18.47675526074231,0.6150467496837337
28.252072651141646,-58.73364372522942,0.14597287962983796
-98.5166761063607,-72.42233695506347,0.8165552641765187
-50.10737108322149,-55.21691252845745,0.6700753193539055
-187.495906934327,176.64889195212817,0.760519320270619
-59.327419335624185,120.0748769559324,0.22500712739162365
7.472056335053617,17.4324885887683,0.03743899538058537
41.68456400379433,42.79988673587026,0.4708931876262752
260.4515909682944,62.95055406600514,0.9039900122353369
-37.589428722993986,97.34348210394148,0.881727765064086
46.78222717074156,-140.5191036236511,0.5829107342476113
-100.65065102707335,35.720088467978165,0.26262673751413956
42.389231811770536,172.17988266620893,0.4404670337018781
-142.36211826468522,68.19432723260638,0.6712234196413512
-79.50158728748777,-143.85891148373372,0.9229937487319179
-81.64016269842075,-14.64567529851036,0.2011533514364121
-48.444409488776074,81.49005918326112,0.5178879254866281
118.92522245338722,84.49099165112595,0.29454221961509397
129.60496179357045,-17.7220660810761,0.8934220147117317
154.886150171055,97.23051546256859,0.7313403953708556
-89.1760627469649,43.9167251211208,0.1556641885481257
57.062882582157826,30.16247237990843,0.8386443110768397
106.49776209425245,55.21794285779033,0.7810626975878149
-43.52949652253913,42.60893822008454,0.9808243165916042
-130.75127558009308,79.03624021771509,0.6189560938652023
-58.484779477085794,61.21518359634681,0.7193377439800636
-156.92570496765842,-8.107259267807063,0.4973981916760666
-96.4101644191795,55.113904488388364,0.7693664531262479
91.71157314451362,-67.8961883416762,0.0993086750657387
-110.45255218481604,104.7311299482642,0.49588869997938245
62.88913750962267,-50.896597004471985,0.8784167763507337
-50.47461679269853,133.59762541503076,0.5494648825973538
-106.16172395681922,-146.44685971249504,0.8562363132219504
-16.34598578492955,-197.99539313441292,0.7997183840609307
-128.3364870362265,58.221456342970036,0.23941436987260967
-154.19119991362317,67.02008793745135,0.9840444274082181
87.06795189910946,177.53751396185743,0.08453785537289205
105.67736755370618,11.47755871211748,0.13285908440837468
108.07728646852097,25.8498740176339,0.31791606890406254
38.58886319444425,-184.5426908070123,0.952619860336598
-69.94876492976864,-184.80774570840538,0.8708364783232232
-20.727242193317757,-44.99857785022613,0.5837053276537905
11.877995073768814,85.52087317874756,0.824660489047366
-177.50075386527072,-132.41520965988914,0.49135690325388504
-126.8763197032527,88.50268578032946,0.20447585567892035
-5.654499732105891,-154.20359983471025,0.39768669444952887
163.42196672375485,6.847330527118424,0.09488630951112886
10.904535923664634,56.22539822795167,0.012318511348609174
172.2535701241873,-112.3287233397372,0.3542033604041206
-36.45590878903039,-18.3657102671035,0.9159783839654536
-138.26650231481466,157.99095957216142,0.6739408540761047
74.40965428093264,-42.16018996808981,0.8152392358683643
-35.23221083130428,-132.28180487928915,0.08155375925520181
129.25881208566443,173.23277510119038,0.4864282334815544
67.42927277807938,31.539541825426117,0.37926483507384035
0.6561237096503584,-38.67785277805563,0.947685629989049
-86.17548265643975,-156.55056330471479,0.811450372730214
170.6437810001239,21.737582950003542,0.37779965473385346
-37.39099713451135,-0.9994085127373752,0.6504671522085287
56.23104295991129,22.830797637192166,0.97253335768973
2.2579019874606288,-107.83168914145531,0.15411445501559318
170.3620031267356,-114.33320042263114,0.8610798216374912
35.652912426973096,149.8811520193644,0.06390368443549577
-50.502299873839554,4.52057377956362,0.9842966575873898
-163.9603737770098,5.336408254037192,0.9111383473868072
118.34230577039975,-79.84056092393033,0.677040775106447
-87.77498360024694,-103.07258674781299,0.5388170627285402
15.749802497881383,-14.669446573473946,0.18047027079594025
81.04360417063972,-84.27595152266534,0.9794083998118842
-32.63484295565073,74.96127894007083,0.5161990154166898
-143.9027030962817,-74.68789572332378,0.5195858349030374
58.98237515549385,83.26437421885788,0.47056164895716945
-87.70243965536851,107.84757024330793,0.736561172089961
43.24544139768502,-72.81514706497245,0.6838587800357331
-99.17922334475767,-87.11143462865208,0.08906525672189802
-52.47384549097558,-77.0732736277159,0.9698053058354371
92.48549105144001,185.6903883134944,0.2696059489322816
-62.45279629063047,-127.37357566629579,0.28887491736455895
-61.44206713260644,72.0617879917145,0.4117011370844059
-42.46682623163052,-78.07468712980237,0.8711105180114282
-29.372077239878987,4.492415250678423,0.2501797753383209
-24.9061761687335,87.24178661079186,0.8078209955367641
-16.279171763753727,-176.54775314671716,0.9464731907723255
-24.26576913035479,-96.36429259500919,0.5357516902540345
94.54374942189364,-48.28842817183091,0.9394059947208817
45.57796365393426,63.07383696780029,0.3834819863488498
-11.402482804425462,160.05362897905655,0.5368920582378468
13.13554734627593,19.427214884447018,0.6894761134219912
-12.02718450288491,-17.803770102673216,0.7653478400455331
91.76449943659618,-54.394406137263104,0.5437967656508466
-134.5709640062816,-82.49305641356845,0.06743080932805212
-18.58145850417085,-98.63480882019955,0.045274717820269594
140.68140621028687,98.76126519109981,0.5312362293864189
0.14212902523527568,26.539969138247173,0.5668426711837341
65.06311453087821,-46.8920031786316,0.549548975404076
-72.91666457231229,-9.233536456201314,0.9079184849586684
49.359047621690344,128.67420550089594,0.11420330444018778
-171.86851795900847,43.757357103202814,0.07243763420353833
-126.25972484066517,79.48125657877387,0.4543626176852106
-95.51382104972367,43.84967643036516,0.4967721528491317
108.8161796119254,87.12185170234649,0.4286233854633992
85.78228546570902,-28.916194550580705,0.40507087345729553
-10.17825156011786,34.54182185271213,0.5885927162505681
227.75282370806175,-81.54727591060546,0.7577213471469527
-0.21395082582901065,-97.13271897353357,0.3712112479124954
86.65083273163572,74.5624533330449,0.6269525369842176
-19.896835928056557,63.94821232130593,0.3184705590611756
24.56372679023711,91.31901336925895,0.13686370003100756
-79.67609278928308,28.721060607851616,0.9436794142154935
226.9445888969735,-120.61154209211817,0.5977442077233152
10.39931835271783,134.5547912399917,0.3147960645098906
-56.107059298348425,-181.33933030697048,0.3946662161035548
-49.17956412883768,-78.10629847759655,0.7138963363614812
-124.67987712296062,-200.96928566149253,0.9090386814911957
25.713000662577073,-117.31540667047615,0.6540616455473215
-48.31938401831676,80.53800080023238,0.9896839031505498
-49.14842124146352,144.73404358015387,0.12246921850157333
-87.315463094305,80.42554590891584,0.19072297234362356
152.21709038042513,-12.157982856371813,0.8854980930640893
105.42823988511797,-239.41480717529288,0.5828338386162092
3.4788869269191474,-108.43425524422088,0.19156607338382947
-92.02915264791231,12.254546176959623,0.6314946592377455
-34.14814490454016,59.48822712249693,0.6164606702101773
8.4522541709616,89.5917113090832,0.737788574651939
14.643620653238228,35.66478826206166,0.4539757625070888
21.157946539072054,-19.670244800556127,0.667999671909493
19.829144993924707,50.40951493974948,0.7938599026590023
-66.54150235753902,125.88034415987363,0.18924176284932803
-144.20978351139095,-100.49494185986786,0.39756831651848024
-3.231524393863492,63.94295704214142,0.7172129127273249
-122.55578549503458,22.528265063032364,0.9240591416943232
3.600107330159605,185.47780561484873,0.9573502828002858
11.442392562954225,-40.70334026980821,0.9738047200113609
-54.701160879795864,45.68420502873884,0.8823798828818709
75.04825709101596,58.28826766005225,0.6279275702869614
-169.72421371841807,71.82017878809854,0.7335637139916634
-8.543587193532455,15.111258583475754,0.23053299468283217
-149.72060489994396,63.19623830481521,0.5156538788823306
-47.0114078160803,-194.03420728045097,0.42983627816230796
46.290960594983204,-4.689529807936231,0.5567126868069557
-114.7675762179788,-52.17945208353862,0.8824751232060819
-72.62738623765918,-86.76107550980167,0.337800610952932
-40.90801344343329,-65.8690885993767,0.17389849174761374
24.175371755971707,-106.5787877058068,0.5576087704300597
-108.17056373656877,98.36002337510654,0.1930117391506424
-175.16231783951756,-40.65565112106323,0.2088184069213611
22.520467470339334,91.45463609185033,0.45514616677979725
18.888145501059387,41.3808783744078,0.7970009659800835
-80.31627377325182,185.61229995596833,0.371534514866934
-91.82215079839999,-119.70193627172681,0.14723283505919416
-138.68509726340892,-39.67018509454931,0.5275597801579587
166.12851670900469,64.9436305327392,0.8176527854446776
-28.177423024835154,-2.7512048226509305,0.27868156274801226
92.7091741485299,36.85614304143313,0.08900006464208876
-20.05927314997552,-62.668817721516824,0.4078357308542352
-127.84055474597145,34.97506723197581,0.16954379451795187
104.05491262431319,-147.762950175242,0.26069700512775473
23.71968143148877,63.24663844960595,0.09461949806914483
-103.86092402039273,-98.62532950211744,0.0422639572291299
61.55279105140501,-186.26928530042622,0.058620885087351304
-180.9330610517075,208.37745825304972,0.1987640040563733
-113.31426423498013,121.77819093444187,0.7475550884388066
-140.72353630489167,111.98710281070665,0.03652693922201855
-128.6335332081433,-55.35981379810203,0.019023528208881313
-4.550165821160183,-19.559847172910295,0.5000614489041747
-84.79557980756735,45.34455589118907,0.16922798732325273
-39.0375533488437,-110.79892895863959,0.4219007507609852
69.41550546462724,200.67699449015842,0.5955124779006461
-82.27687356248072,101.66360456830913,0.4407413343219355
16.727531890153696,19.911502281887618,0.4387320280306638
-11.391826584241347,80.102127643896,0.0971356671172493
-46.42288165661118,-10.775416099235436,0.012354173873992957
20.70814894342595,-39.56075167666039,0.4506900805041092
77.83192856676054,-20.476336092699118,0.4176086129361708
262.86832555535017,-115.59051871958599,0.48142004061167987
107.83073490020925,111.02986878615448,0.7711963051082478
15.352697566099518,-138.11637860089166,0.19554182088263472
-90.67325608545963,19.975467277356447,0.9049735459143785
171.84780417236988,-202.22426573503463,0.8139527730197204
-135.6117039535621,172.23394582830895,0.7441190290863086
-163.6048820559204,16.939440486945365,0.37601532858042874
-51.26458229740176,-139.66419705073108,0.38737834130122195
2.5957268005527774,86.46294140750442,0.06452322439695646
-85.54691804530049,-188.06717037096917,0.7139172308285946
180.7955697763611,-16.292837797023367,0.9164451883682727
44.44397464877029,-21.889139080721954,0.7919241021175898
-75.34827586662021,72.46923496707619,0.5305225043459639
1.6636179401034537,-132.7070055494647,0.33761622421682447
-105.20508114384286,202.40975782694287,0.34029723975544957
52.87816748605071,125.8423300776566,0.802586763859035
-98.84566457338401,-92.69293034054932,0.03602489283269028
103.55611480231235,6.742303483490468,0.9002787393191594
-51.5178842990782,-25.597566245054576,0.5425626212116846
67.78083622540491,-43.57675108020437,0.9106636154178245
117.55577415390228,-104.67731544136998,0.18818224268663142
-60.08130654486352,-120.0054277545958,0.18435956806529397
60.175639543039,-41.693782060838515,0.7914158468451973
-112.6223129367429,-66.9344044085673,0.13791108606384672
-101.11071695090213,245.8169585107712,0.17837847890469893
41.97560145053193,105.42946428116417,0.05528733608749614
-80.37582689894715,-15.767992665979078,0.985478215188233
-10.116992507076736,139.60532802679148,0.8257611928859323
-60.8506011709574,4.142086671316101,0.5805809070585262
-48.6964909434844,-53.58337030303196,0.22146367851644977
83.43952068684814,204.1736156124269,0.22443498283518226
-81.94839248968773,42.254555642652605,0.0726933008759395
39.91994087253796,-165.95908183415145,0.07323985749350825
120.0904894045336,-157.02902094476002,0.2912041109471514
13.06379338566137,17.437001426846923,0.9245003250922347
191.08285472538282,155.00841287244495,0.5814191821922777
61.73906262126484,-261.9105129225261,0.7803881467731647
-139.92636080463942,-65.36918369422928,0.7846432377938047
-70.3502152590885,80.92315496498358,0.5127012286203131
4.461551867015758,-68.14753652535572,0.5466617938561328
-63.77986032341093,56.19101581711649,0.3255608294929405
-142.94234320993675,-17.80082727810338,0.6614872197378464
-70.03027780147552,179.67190545145766,0.26148927903842856
-25.761502355857306,-46.22470682243878,0.32806033284627645
-149.57486248792375,120.49737437584345,0.2164220344804204
-180.28927308051732,-90.34391396572524,0.36930587191948105
-137.4976678569209,-19.052359391714663,0.9310172288121676
19.029944562116867,-72.73846049101766,0.39416472461221896
175.98640836194852,-102.34881239054792,0.9916059343006732
10.795092639897454,151.69997350669766,0.3158952596850372
-100.99231645046353,88.46781554753133,0.36116337769400175
-162.63534696841637,102.21339575698785,0.3829292395928168
173.75938929771533,-2.7750653588798513,0.027994112427327855
-78.2171949469216,-77.94465920383341,0.237992831100018
-23.326907801057068,-6.498378029805857,0.2261567884181238
-72.42228054186069,59.88114564249874,0.5280263119384448
169.79587995921463,-15.882281141708097,0.8243001403631086
-157.58254498252373,107.71499961668978,0.7848698635041388
-121.40198627506142,-204.61489104027794,0.8829022659470437
126.76830782803512,-82.62106327758664,0.41227682707058755
13.33696027927701,-55.63115972891634,0.8299575783717409
-47.43842322527367,-29.148518834155524,0.6214626604621848
113.3451291775345,53.08332013871636,0.05338571567753758
-200.8115383200385,-84.86971614440118,0.6132163084375761
-78.37448290117904,47.97936643871096,0.3668064676342597
-4.188937941289414,51.005038671353454,0.025911075054547705
-105.01407271834262,30.11993569656404,0.9260095457643772
-44.9266898714087,-165.074805495656,0.08124963152498899
-1.571024115784712,73.80119421553462,0.4480589870610524
-74.24829167100955,73.9882806293685,0.6773173093424711
-5.011960758359923,-83.88711099202297,0.6275280066148657
-30.359546471155134,-61.157494257015166,0.589007555654146
19.176276161818976,-5.861899596661662,0.8478019358117687
-12.862713530855336,-7.634356779750987,0.6830309785030699
-163.64589933580612,-23.575527399684123,0.8337450189115092
-139.30120789613724,-81.13431410466615,0.8218591856047943
-18.566205146528763,82.8917487007818,0.1199806755710785
29.8223103618605,92.93786803815918,0.6323337866206378
125.62063911120505,18.65283723488952,0.10781096322967554
40.50092668851924,-35.2181887284554,0.8308304907323197
-7.3205780225577834,-158.91304951067707,0.27453712802855557
-21.366156670267895,-237.31379435921372,0.5576578126740167
-142.93811243338473,3.0228288591945605,0.44829716902958383
23.321474942146626,28.123942354863285,0.34322468922861804
33.72690315529743,28.458940446009585,0.6883373156159861
-60.31008047230387,-103.0807727844131,0.9552199543278981
-39.775153744129696,44.285384267947705,0.9310861768921985
156.39750246740775,-138.03671476960028,0.5390699022258777
-131.86515585624682,-172.2243320952818,0.955483899057378
53.29389152827698,133.2765118019295,0.28183014860722777
121.54518527004916,-40.207625739960356,0.8780772247735121
-130.61249538573608,0.1566152345857057,0.012997049306285202
-123.92294818847698,102.37187544973835,0.9998065199305385
36.266409870591986,116.24762740830563,0.3117092158606892
63.004148534940505,-95.55569861602682,0.45394245944115774
13.939257922593976,10.790099752839904,0.5899433952880644
-5.175956055770773,85.87991963676068,0.9190755842677271
-70.42998403463872,20.9179294802867,0.37883856600462096
-110.33228863248881,-110.7228937236338,0.9908372468584876
128.0911347672172,-52.8995617580547,0.8114430369390745
16.049904111587036,115.76855370155647,0.9386803787516261
337.6872118614659,111.777316436669,0.6989956239890822
-45.96436412086651,48.82771559112957,0.16890183160312544
-201.00535400035707,-12.436248957407061,0.06644669827876892
-15.163369246251786,6.82761559771968,0.43814151730530415
56.666608957931516,-95.37784742285403,0.34143926511494815
-80.08737748412877,72.89725261484813,0.9387562534011586
106.2522199561127,-65.04484781213135,0.35422807146244595
64.40932777626371,38.58116541467324,0.3891513103043317
-66.06704538675979,-83.68042466364473,0.17652742453525205
-56.39803097310856,-142.6840315884232,0.6617582317432231
-27.477259854859724,-68.34310389286263,0.13522019697235999
-73.1140128632452,45.102990132834,0.772040179642923
-190.71258096893575,41.26872316831264,0.579714422175752
-62.629947254091945,251.64441301598558,0.5491506129652391
135.22260731369525,-74.20697798973187,0.4340499655818816
50.39402174473747,-92.47075142555833,0.5932701415316501
26.523039803697046,-24.887124295286654,0.8416678465705396
-63.272428149198376,77.14401306627951,0.3598384561310787
-36.48205167791499,-68.78341968148554,0.27820542556915107
-35.31100496271568,-184.81368319794376,0.9534851505752617
-37.23966771251172,66.79260105732233,0.003569613844621067
-31.46762423403785,-117.59063595049805,0.45331660738838164
91.31164710836252,120.63970225643081,0.8942132775545474
-117.41026060939028,109.0872699243659,0.1737444529834925
4.577082074508931,23.499407547002377,0.2119583576916091
171.45040032170246,-19.907584489613882,0.5842650797042768
104.82097189477425,-27.802659921276362,0.10579438699444044
160.06922973848634,-84.51854663075926,0.4821746319687026
-117.24118705311533,-112.53049022134012,0.969211513538943
78.02730035161383,69.11065845139878,0.3928608168431439
7.381432732533683,-18.849527184383057,0.4717631366503733
-43.710016762690515,178.63014033849225,0.05119356237686001
60.83782815500588,20.978364933388903,0.7987904957258152
54.70874022749592,177.98298359879797,0.005481559536652747
-25.314080459670933,-173.77502506048296,0.5429330002433392
30.484735206173163,-181.28702561138186,0.712000701759644
-71.96520628714453,-30.955667167846673,0.1748444725430689
-25.179219749977904,-154.87049413067794,0.9158875073462579
-83.22941110397818,-4.863766519430613,0.5802207944712636
-117.7555683319601,-31.242574732623773,0.859242864682099
226.85442265006088,-30.944871163384967,0.07662753152287693
-147.10586671023947,130.4972916280073,0.8388248218879635
132.22903385489928,86.85017939578896,0.5592124241596386
-311.83270945416143,-28.30100847831329,0.8505886113845447
-77.5813290369401,-65.6238322072858,0.52409959336194
-218.72940420099968,47.91074567577136,0.1470114551087388
-63.11244204719759,-54.54397932738419,0.5842167539483499
63.852905311203315,7.347025014297326,0.5681483941858128
83.01336168452822,220.56201955542565,0.269356795597277
53.644253447267864,110.04358475484108,0.04868675218652352
-115.6535746050566,1.8821415055850599,0.894347345092089
42.715279900329094,135.1900832750634,0.29733094322001175
-148.80146696902946,-86.70240956602154,0.39349442439468585
238.4238199414096,120.81934810498838,0.1369786732555619
-26.483050689316208,-150.72119584683625,0.8913051892880016
92.74389669254055,-82.9096899907952,0.362102617477586
-114.00082877904723,-119.9955687359944,0.7061841227765977
47.808307911147715,-4.682697307911578,0.6972790041187311
-165.59268371128258,-82.41200005139879,0.026927961684687807
-15.346600615885524,31.97468343662027,0.012884767285426868
-170.43489917626303,-163.1182756902366,0.4175498018368722
-52.285314278135964,-2.2636603960162653,0.03806171808071168
-93.06798093432339,25.70587532473515,0.5785117413210918
-49.82540312212813,-28.891157005075662,0.7517683761739066
-159.8315290404496,-14.807435823797793,0.30516603506962714
36.63446597023449,-19.64510979283569,0.47449931614922025
-135.78794355301858,-35.95720134931175,0.40447578435990017
-6.168615765097967,-89.45656457389605,0.3537357710600135
-98.43191504446848,-86.10785457444615,0.5566447039556998
-28.205002189045693,-11.29581440503369,0.40859337404825213
95.75196147798,-70.24049599198062,0.8658139444922348
109.34055899155086,148.09919958895085,0.0005659161739303142
99.606373470303,71.24232475439464,0.20537163581674256
94.84831107511813,71.7887492215071,0.581077541599125
-179.96871314011509,40.78789948931376,0.5413023925012852
235.98516224089283,53.41403093930024,0.9908123976566017
118.67878865467215,-12.913531437544467,0.5984148094070517
-144.83453895063883,48.2714229355048,0.8000813239454374
-5.059190960502557,42.33345191195344,0.13024925494017114
80.19989813821236,-45.04030191072588,0.758218545792077
54.91722987441293,-55.657648404000184,0.4543969458264354
27.46560160624634,23.289205223648587,0.9297542293506655
-25.702704200140968,-49.96346028701769,0.24969850036355346
-127.63259928027071,54.163771778638015,0.48617537262809574
-89.40584944341697,-156.95429646572657,0.09975907710657395
19.197124352960117,96.5355316219208,0.9005043938372247
-16.144299763089784,-226.33725231166468,0.49696285172794763
-0.0835915391791911,178.52657198342132,0.09639071614919581
-261.5574937468183,22.771944091394687,0.4295967596335085
32.97272626960612,-53.39313294511467,0.7068409512329409
53.32510936426904,23.577962859445318,0.7441154298543766
155.30631530759723,9.129026394430793,0.21613801729112803
-153.2450097555069,-100.62549640397998,0.3672751587060663
-25.421499099828594,119.89111191220513,0.869190819074
-32.61813346639594,-113.41145209685912,0.812764287871325
-52.13639941775714,112.312470512639,0.225519966940248
-154.2757724959575,-21.37572651862595,0.2688242850744027
-128.41685438249846,8.344069845839279,0.40288949264767226
-7.493582496181384,101.78011744009416,0.38995612904999755
181.06433303357062,57.057962418043296,0.25449297269568605
75.09571021429923,25.23745710432862,0.8808685195502539
78.66069834943073,31.50936626440527,0.4200552160243347
61.583564509838915,217.0712753489057,0.8998774731818855
-15.058168567420926,-102.36043992776884,0.6546426779993981
-94.01772346701806,-2.940852712946008,0.9443953011932339
-156.47125869875742,-98.83792580887648,0.679526266181517
41.63731656734607,-69.7104322058962,0.08026624526197046
123.42611563557413,49.41281879738711,0.35391997730775526
79.43082261215666,57.56044448928136,0.8493497225981362
119.7317542189403,82.08719413143962,0.5262966405224926
62.265341338554215,9.537194383235887,0.38978112054960923
116.56241824882976,-31.965955908161607,0.9802906344716279
91.47713732476402,-104.68448349572658,0.49018440593489276
-122.80831284153994,42.4354717115073,0.5277680129393729
-73.4353909729791,-66.97611354175157,0.6600987003757423
-80.29305132975044,54.81290276236578,0.6045444484697063
-72.23501595583149,224.57492567211634,0.36209720915383614
4.410986164514153,-24.414218188643055,0.15584829149054236
76.18663205799959,1.555010268800902,0.18941199515735696
38.26692688889884,-56.40118802045082,0.4495369801545023
-73.60161638212438,36.99352364568659,0.6465370639143299
111.90147714407894,92.10010381654436,0.35780174413659904
-83.8877149549879,107.92086879419756,0.1749836348735897
6.0383267354726184,33.27255424469936,0.7713876719078218
86.79665193352677,-62.39441427127706,0.29585715056194384
-4.03632378106633,94.48945678911723,0.907328779398154
173.3527544399813,-114.53050600112675,0.20728856532174167
-12.08111712518252,18.736642049724537,0.987323582237994
71.50239227490312,23.446060425913767,0.9220236807409089
231.8236428383504,-40.705294494296325,0.9536310256553826
12.56873143720208,-46.386934556550976,0.03277260232346246
7.457652272947336,23.12101080626513,0.17451842257821104
110.3970438595989,-52.469865430162734,0.14493894402782947
82.08321592713965,114.43608600006658,0.35586819583762996
34.03848035152899,-106.20316811844543,0.2095771803463914
48.56772831098256,-5.342617570208731,0.5673904117712518
64.71527674226584,-201.86069548517028,0.1261256915579092
-73.68617300579801,-190.81105253180453,0.08857840654642157
49.96783231262649,22.219666293262858,0.040839461396734444
-81.84396923456741,-1.4489306410559066,0.16618783198833342
32.33102014266905,-141.52641230831375,0.6646490192557712
103.5247204546672,-7.207065181383676,0.6713214242499826
46.21452829933029,59.833448348505634,0.2054041028124698
-177.3315310459655,90.02330554267644,0.255750539308514
-8.432063995108287,113.5097296499329,0.5793933217319407
-4.990853032030163,-5.37714783283405,0.3752807576572904
91.19670445557027,-65.17546063771402,0.7962163538775697
130.40693610223923,-5.526350833385046,0.07704460461691387
95.59757885930223,-34.07289611178761,0.0300754959509254
-188.95235974749974,-20.21040791635272,0.9959045103952384
125.26922120486188,-87.59820984022959,0.1810297401581169
-121.75180492919122,-182.53796269215587,0.7465808664104804
-15.672537767593953,211.71119333457548,0.09644733857591781
-57.13183451468381,123.83030233807395,0.6099044659799453
-123.08571967562617,174.88533354070495,0.5050427888043032
-36.10268020502281,230.41178756989206,0.9183735976192886
-39.51029244637188,96.35876682943062,0.0997280943807255
62.74339845662125,-78.18823717982491,0.6732357621661184
217.52788053270748,75.72913297338594,0.6187026019314751
28.450749525671853,-154.7679950950942,0.338978148743047
-2.85282056374319,-73.81137666296075,0.09735054110964969
26.234039547396204,12.913718177123586,0.9598516756709968
-147.34047056087104,189.15553023726636,0.1322518697070526
3.378457881935632,-80.06596559306156,0.28559094191366263
23.13464496073932,-133.11102522812433,0.949409991104232
84.83810331550143,135.77309113311566,0.9753121350219374
-195.0519961954048,-105.77947413913414,0.5630761140026167
62.20986735818599,-105.08235720704997,0.004490015346579224
71.86559415517439,101.24027542942471,0.6886405096747287
43.30132665062086,-124.78678556749152,0.9268499956657531
-28.81657437661423,151.1199185908683,0.5029237237069926
101.49346026814025,32.16347148490469,0.9748701627526841
-3.0507780344423088,65.07716665776016,0.41645142096453525
174.85208655392617,23.413429256939608,0.8222201861118653
-75.47106637696879,69.40065018446094,0.26488938444412724
-21.451778864778454,-13.013526088800592,0.5245347992945075
-40.68230259785699,-100.16175352444465,0.8526243006952675
46.062043237396665,134.66878494359523,0.7354190759477378
-105.25016742106139,138.11552471603295,0.5053314129387627
-133.27219729292366,-19.819922082292514,0.851269072985316
96.98721430600652,-4.25105167255188,0.1431477618050805
78.88922372244296,-103.23922299139771,0.17183101451653138
-149.1550121750037,-100.7622270118202,0.15895288904565597
56.219040885113834,-52.25237177019891,0.9280773041456234
150.6926430661618,-159.84672103529277,0.6720276207513234
-79.35485913410616,-173.41963509931927,0.3397315466354831
-70.65357031129747,-203.9613383581083,0.8525854563540678
138.76970876854804,-155.22245870135032,0.26286472498130975
77.18605931779206,-71.21260956453169,0.6780504277245968
-84.94694692911582,-26.017682146185155,0.5637932312971353
83.53018857652307,-84.82269207904993,0.7928319819259443
-124.01067947782174,-8.61860006161544,0.021421243049235872
-70.96517077437062,37.581668498815574,0.5012093275391473
56.187759518102155,-159.37748186965456,0.9473700719767727
48.321097429151564,-135.84751215683207,0.21422508145224994
-134.56027604191542,-51.59389458757141,0.5210884621838874
-131.7997028261773,-100.0474012695294,0.5374933033247971
65.89360026940612,49.80029763366429,0.2111945698543659
-91.37838889108525,-31.79419339734806,0.9458351366776514
-136.97384680978686,-83.39220452889067,0.8837351760481276
-6.492287862484485,143.0654005488295,0.4171903929748001
-208.63786448514819,6.2792932992081845,0.23618379595703543
5.262472460674291,28.109302796290255,0.5001944923213836
7.659466926591514,-22.22224089742446,0.5331246780400363
-96.45200143235661,-1.8125449996536351,0.5770156656391311
-22.80076427662402,-58.38065379436769,0.5905026385401071
31.474890021058428,121.14988349662681,0.5014119270206827
-32.85653681662883,10.708681666995885,0.6544413721386123
-5.6515014464316256,13.394550754890616,0.6126605572652277
157.37339079210736,-139.78427701156798,0.9752672339950286
78.68438824183094,-121.97421774641637,0.7448155233589655
-49.40419285835818,104.72361790253564,0.8195808934703961
144.09728760165393,43.89686724049287,0.5947461958748598
137.81760289301218,-79.38006579194462,0.8737563404871507
-181.18673350608577,-129.6837335300288,0.9473553916241976
-67.13541851928916,-25.374467617176528,0.37551247590554704
-137.6349151154767,-44.46321296762546,0.752486385136335
45.43023917441026,-78.33889067065091,0.8570282452693124
57.01963223473556,27.527831290948647,0.7781188011589322
91.73974638880081,115.71772068699062,0.7344385553792527
-107.4518753206595,-69.48295224167448,0.06201944976231666
97.02094494720835,-80.98361398937065,0.5317021713138509
-21.78470244473843,83.08888689873586,0.8294715389814732
-128.9460147596533,84.7363357632833,0.9831527312285377
13.404289581545747,-13.994801914045915,0.18848798369218578
65.99014757504266,152.35338677907896,0.6490415657838957
70.61748552009452,139.8043559124316,0.4063791224073333
-37.175504854511516,-15.292948700614115,0.5389226443350098
-35.95686752189135,-19.790706983996486,0.11859121371046222
-14.112790694919497,66.99734310360144,0.21040413704497263
-76.13501222334818,-27.068299661240964,0.34903874966459025
-49.49743746356036,-76.66221193860194,0.6557422809153456
-53.38941340383458,59.47114373712541,0.6349762039332082
107.06437075347692,-108.3838669175694,0.36825618369047475
34.46506130887815,26.854435840381363,0.1591635879557941
-39.160267231512016,20.03211941182966,0.8584036065323019
-27.74659521036679,31.724893916423596,0.6836462805874798
-38.96128965280771,-142.58685786034005,0.2742502417275672
-220.89677136897623,146.01209198619506,0.23480491721115493
72.0783824455929,24.517182195265686,0.27788845632411485
-47.24636757902224,64.79136896976047,0.039593759722412414
-5.089341716194791,-198.10442989733644,0.9536789548995894
28.421129285038827,11.909418250847498,0.27896469363101484
-42.064905720028605,-29.120054958598757,0.345596500826886
164.71921874239095,20.813621237850427,0.5046778155264173
-66.69002110191158,7.045940036318835,0.5452268409820502
34.6177479829556,-40.831592922236716,0.16784105473295785
-60.40755175247733,71.95711582314509,0.4635783567081634
99.7063437922248,74.64948376685359,0.6383382481366188
-53.5604689143403,126.52497118734138,0.8655821884500293
90.61655494899424,-70.29828243157644,0.5333671298576687
15.372492516564487,-7.189466288126056,0.29196684451486143
160.19413218273073,5.6246358608056255,0.14082232429768315
-43.10046450732373,-21.547612635490555,0.42745461331119494
135.99707951694484,26.579303652495607,0.9844946499657786
-149.3317953198578,-58.321440298175716,0.16076663347604514
54.099466427857166,52.908881098218195,0.2168042096587116
-42.008665285276,-55.81579324827216,0.9030674516949986
-35.95154611284934,21.576227223059337,0.6970012331413428
-39.22756201875776,-138.80856919889303,0.5336434873097664
128.12051941299825,53.94229594155509,0.7944455984096049
41.05206848356441,60.272383219846304,0.5196598117123712
-22.009776198448268,49.78944511221117,0.4426581071157717
-104.38490427493106,108.77585559266151,0.5986286148835828
-84.83987638584928,72.45067209129009,0.5043133706099259
38.3922860625354,13.722171231163996,0.60474096767558
76.01338624960519,57.42719385115627,0.6810644959028173
58.129809090729445,-49.024303141291554,0.7432889989200098
25.223027823074386,70.90256592423655,0.4689245383438577
-113.41773132238843,25.00921133489119,0.1067576191198828
91.56285218263133,-14.972383286021184,0.6113932638839008
-29.656076862853176,-38.5863094730913,0.826495913957898
131.0605651932745,-125.46091964776107,0.6411497388194373
-46.23175557837487,-20.456687945518162,0.9095240750312229
128.8901670983691,-58.66909998373037,0.6550677619625943
32.54679802141307,95.95440244148516,0.04233618725579957
-136.40316562169275,-178.2139274010319,0.8424130287089918
57.70356726118814,128.1471417499735,0.5181182234708267
160.81567732928247,99.95071886913112,0.0053877438077784
-31.073947069014636,42.4258419428537,0.3668388322481717
-7.515534193881146,-197.71093834144273,0.09154971166543713
-33.33099323621636,-241.34239434955478,0.43963519315620336
44.4732469772054,-120.80266975824038,0.8205534965079344
-14.746603648233567,-72.88494691946201,0.27492048185038875
-186.22367235784608,160.26685926758154,0.6781524735394485
-103.12850590312428,43.2831032873017,0.7779314180608571
-45.94275731418025,-31.355225894517197,0.7451520851594006
105.77400243226118,-102.17408402299606,0.947572422271875
-101.72889595363218,-18.45079685053624,0.8711544402613287
-186.9610510800903,35.85967596622358,0.24394839740099017
28.410611080786747,29.12966268473151,0.7799027331772185
-46.056211806014865,-0.33890274571771517,0.11665423649790008
28.96090235184098,-138.931253152765,0.29356699683920584
171.96470729816266,101.03748353482996,0.6657259795820166
-131.20270200996694,-87.65189964413885,0.3723840688095271
207.4810184648944,122.58182564207641,0.3631133762187976
-230.33205385735877,-28.00823522623958,0.5649288465586596
-375.805036772687,51.77727045091627,0.9333272254857563
-30.785339898687887,-2.310666809686644,0.6510050240434385
-10.372056431863088,53.97314479185319,0.15971101582166736
-48.525837011283414,-145.55090160952238,0.19838556673763863
-21.04239546815502,64.98671521644638,0.3728306832473809
170.99102313379984,-49.648041229732904,0.20659723589693668
-95.395015363788,-36.348462351762954,0.451670439436451
44.05742442462925,-18.472524455614465,0.10987167779123108
-150.63882293044884,51.15825147013175,0.6162089390977606
19.320006097490726,231.53666520296937,0.03793113163012318
-52.33323893931687,6.710439405900377,0.4121930420593073
-76.23951818436703,-61.11052347833689,0.8344207168319969
157.72896305201166,-56.013426667589215,0.476451667297802
20.876999758546837,-130.50718007724768,0.9835221389132733
89.3160567918675,150.97425373473982,0.5210597389608685
40.36692851916375,-33.57756384565615,0.13502757215483363
-73.23104741817372,-41.10211341021766,0.6176519452141492
-42.920078657040776,-185.63608029413302,0.6831939973785208
90.06830616429875,-30.428981102219417,0.2689059447778209
71.78100465668166,52.24201073872773,0.16692270491487993
-85.15641622311854,35.76044879011993,0.2661314441297563
-63.25376758870279,9.293069093563682,0.6377920905495094
51.26990070886098,208.97043195888676,0.15609729520750237
-50.2564813744656,-32.35570826773521,0.315532480380195
-28.250123231405716,189.07501801642763,0.7519138807631813
-262.9629341376019,67.9493015913578,0.8373876751965594
-165.9177887368367,41.599368925073364,0.6323892770480614
17.916702829791838,98.94386936750281,0.2084052411617935
-13.440232133884747,65.80409248025649,0.7705211599034144
-43.28010937051369,28.73039294259704,0.5607272618831383
36.05012926539272,-22.63427223515385,0.2060679116252465
144.08903516539286,22.54840100415677,0.8765418421404167
52.455623639686735,-39.20941153835989,0.7987841753263739
88.300907410372,-21.226237522947766,0.9720176083591563
-14.479434607027173,38.9228277574278,0.3000988442558016
42.97417546464683,-137.8939205547582,0.5860435605071703
-145.23666194258712,70.22587140501484,0.609835459728851
8.029897732976561,-25.857000799228754,0.5668229838567502
-48.98300096874267,-8.332943364140185,0.41358263094689907
-60.62068037893825,138.97636522084855,0.1139241821060496
190.27883014957936,-18.641315765873003,0.17478202184411284
-37.89011960890837,-107.52965165552779,0.33752010226440277
127.13694211325921,9.327151786997687,0.29662904169236615
-67.43456066763996,127.67609220203062,0.2831749004078503
13.621107282997775,104.83373472197393,0.9698051635706728
-26.500336407841935,1.6342056400600435,0.8495736416618556
-34.772901541080984,151.46458218874292,0.9461052692106227
-207.09897630207433,-75.11446653836028,0.9162658200920547
64.16977933228154,-19.078178977236586,0.2811021425209348
-58.71646156707728,29.848129635245257,0.3596814503287058
105.51692049598162,40.99752829617288,0.6176684957220643
90.89528554375565,-53.86768974690204,0.17229517781475445
-89.76786404628074,14.062214056432776,0.07246318511570693
-61.379919122837556,-22.053547164001216,0.27192620651291066
90.54642879161298,-8.103709101750972,0.7365568026214285
-72.33426836916148,33.53875371223298,0.8047055846407024
68.17845424129823,55.63177725692344,0.8665906046155357
72.20635719725577,-121.99110026899942,0.7782113168412095
27.580883558754465,-51.22806674549876,0.9391779664448499
44.58965173646324,12.80811020173987,0.9603633487832017
-200.54060932667613,-115.21150074820116,0.21901684226207263
-56.21225618708138,123.44409458788081,0.10506120561840271
29.025767213983823,169.14032511292558,0.5317987454388753
156.44010998471614,119.58339953113084,0.053451001323063574
36.80265207470369,9.867459873963625,0.9126008889443958
-78.81477950564474,85.15707943857556,0.1149530807278989
139.2407256466048,-59.871425288904646,0.5611360910832242
-21.140776309151327,92.4682517764909,0.34003907735145245
20.208473812304284,-222.77448735252338,0.9702078666971058
-39.96680329365239,105.96340848920048,0.5675603640236063
-34.85839705478684,114.23002397437656,0.6594954284820574
-22.06106269637498,-204.39111263783022,0.4657461962102304
18.01278420358662,53.81207841152922,0.010228991588456804
54.88464739837083,5.632660030788123,0.8923454349015532
-226.66007107452825,-109.04555771866542,0.9311109753622877
124.22472414310167,-102.91164998343605,0.23114870612717986
-16.338634516212927,-102.4210697245351,0.34887473872026686
31.069338094509032,-73.52718091829612,0.1639395238549357
-19.841261261117992,-115.61526131363169,0.5901439804638555
11.382886842840545,23.587086267996416,0.5215391266988656
-108.08295883967793,-73.19445936854613,0.9825935069521492
37.3016444082796,124.42444086995654,0.3057696422329158
-8.967101270584482,-6.580613279174477,0.6024246368373785
78.03250189852828,99.68383066724063,0.8492264515806034
-94.54866434827758,11.40427025022668,0.8070740487633313
-138.8578515502488,-211.43665094068425,0.9186065879918145
-75.1884593606458,-174.89063193842767,0.46012993439964545
-111.19138239829769,22.883788692743128,0.41592562247782383
-74.42356568765717,15.368146520559204,0.6393055360501274
-0.666965591023734,-136.8320611467659,0.08953797345912085
-167.4088825879445,-16.36986350199962,0.5365587878163081
52.11223497813353,181.72852491817744,0.7423339432175737
57.73036125629191,-87.76155560492039,0.661771669042181
57.14954853869798,141.77284262664102,0.9473223689700278
-156.76696980201464,-22.757243669295757,0.5992080657648073
25.21187341339453,59.254823932282264,0.47449276632573323
-51.82430495141445,99.17724206684794,0.44578337020471914
213.61561085135637,-118.24064159484871,0.16481534600703118
-58.89131692489632,-34.140764550642935,0.9023965843169345
43.8289969412628,115.68710357712845,0.7393881587673631
148.4679951918947,9.572534995134388,0.973063662118734
-51.829107246529595,0.5660262627453091,0.97288239154378
-35.42750836341897,21.41701472157217,0.5783327689498818
93.20397839516926,-26.055421770995018,0.356522308801807
-29.822786495875913,-42.93378486522339,0.8101707745844482
-93.16473813218454,-105.69902072174389,0.9456691192106615
-13.158719112296835,59.72057403297413,0.9969443956830332
-12.335940104848433,103.8494597923303,0.020435496399848985
52.50413085831648,38.781050242109046,0.18487675871407105
126.45178264173609,73.40605313648871,0.6446883300326811
-104.75268465679444,32.32904078116958,0.3087913740341015
-61.1056277940274,-23.828956247196416,0.21225096451650383
64.38174425988,-69.0628175481283,0.17809375825970242
-14.897909543500795,-30.403578554685236,0.334654134379208
-151.02466162285805,60.08173945714914,0.5355826748576343
19.057481989222765,42.064745953943756,0.5866561732004799
76.71400499310835,-68.4943122226772,0.08369613931132491
-36.66854093808042,-67.82678633876345,0.6742258518312746
87.13339032242477,-105.45912007295506,0.046140279777315385
14.772678546408693,-61.32721103987778,0.7278467384224241
-90.88927813100551,61.24410173161583,0.45807683005784816
170.7655301618815,-186.35914643545786,0.012470144958639628
108.4123554757594,-32.56037918210916,0.8721452684278665
106.21324002822905,155.7785914148248,0.10911495809359983
1.964486098616669,43.26745708142342,0.5942357040976374
-232.0912083988259,-159.85875794004204,0.996482607656505
-225.5231650044362,21.06390028111757,0.3338217418542604
-22.301542777614124,39.17028877547385,0.200529377144133
6.259839251243665,131.6756874144177,0.7351101661186015
-85.98736173337615,-17.96633970771044,0.09713753961589733
88.73816825779085,-5.207598455230175,0.7891436415055818
-69.61136731630894,194.79724346018278,0.594620492177196
118.464268409262,18.839175635005006,0.8505019511772517
-260.9181872308128,-152.90112739960395,0.12834134944512554
-134.32908453092745,-12.75396698745897,0.7975741218231325
87.65923249354414,-104.84068985435545,0.26648641515667215
-91.50416847025511,-21.825428931368187,0.5021543465734074
-48.56071051621234,12.844655461029214,0.3729896148961055
85.94695995584982,-122.18905311233263,0.2824604574096593
66.56130740622136,63.30748424923003,0.9248272862027752
-40.76279728384456,-109.11853036409272,0.4312905821762515
200.6665748384699,-330.57892067167114,0.9254542186389003
-73.5111354136371,-192.66094657109792,0.13761469851005637
144.92202846524066,40.24641330694923,0.43614304530552306
-93.79328340394376,102.02660845505784,0.7754753754391656
100.31439370464308,163.60562864173335,0.7319258070679538
60.71451277952398,145.78222767603356,0.8692921246849113
45.97214637354502,-158.3698943319561,0.2812919637226713
32.71684167347413,-38.42878910478393,0.14889336759387106
21.88006972164489,80.87363299599086,0.4846279915555375
135.5299287626484,5.411023142734893,0.33322658564951013
-206.99279690720567,111.81195614005132,0.8757350503026192
-56.21897197628505,2.8262852431356142,0.4310590881499127
94.86865160293324,-68.25638313169728,0.6119304530524727
-31.185787287183807,-187.1866489413062,0.9256525244379048
-45.29632215507522,-67.39606762045304,0.9521559921624658
-157.75725978472775,119.58740590098382,0.015695054270247977
9.071834628260223,-83.82506314539467,0.28089505012138927
-49.721924258111706,34.87732932217252,0.36540442864478995
-13.253406155280587,14.779558070861718,0.5206453570992888
24.65420836147757,-94.88906861769343,0.9291817742367139
37.65176303317845,-126.73941256618923,0.012144028424215247
-152.67460754893332,20.890628976178725,0.6287104151249953
141.67893493122858,166.9969393588834,0.8214011627266717
70.17119179939048,5.394623475637108,0.4548797692095198
25.283215354351846,116.32355022959568,0.911464157087918
81.10942014622181,164.8674826246747,0.7026419855780993
-78.3088101674924,-171.65342667490404,0.38112394742697975
-121.90766309793555,74.30454928947941,0.7408074772122734
-151.61382279758578,-91.18619281652126,0.46821051268041347
-75.89927708640379,-238.3723531674247,0.23438122358966762
-16.249608357818566,-98.38018975572491,0.07154830224165787
-130.02988036633215,9.993274397288948,0.4151845454782429
47.43365924855144,-9.612746719541509,0.5331870590222453
78.88179204017064,-7.03110267462159,0.08207046788276695
-121.20412721313517,-19.99182049190468,0.744645259160048
62.51397616189317,116.6032593987541,0.6429377687633605
65.14456856688129,-69.51303973837751,0.2672695072333324
6.080554819886014,84.96158778557663,0.9707449080343856
107.14547039692874,123.16902846402415,0.6818509083164507
119.8926192325209,-126.00123235322694,0.21341427946098046
105.72899148259158,-147.23505983605457,0.5382229060771798
116.26548466644944,93.03949191751553,0.2507603488260174
-142.6362713421541,159.87347699487705,0.2575332726281503
-37.048629013537166,41.462525379523896,0.2934047242885618
147.37208520065573,80.72093157919315,0.40140847429601045
132.80111900019023,-36.557003480068275,0.5455093258843826
150.2322018055459,-134.8823427374718,0.40021595739248617
142.06866842979088,71.4253402572777,0.8544466678540084
134.78574481689975,-28.079810895028217,0.753249148797545
-73.78417570606821,-214.9765361325837,0.7592335496965514
18.069198591699053,62.17747924502978,0.9671636892123823
93.62381488518055,56.56145835816301,0.5593097751895066
109.99405678339909,-4.123567927567156,0.31963544851409686
-173.01553236640373,-25.41311543739616,0.3969703258252556
138.59345197167772,90.68618279227307,0.9030765687565481
-53.72237041299669,98.60020415975836,0.5233908567691581
4.355998907713073,7.329089745443147,0.00409367627597812
36.33798861547156,150.01365341043044,0.44470571746461607
19.186095665550383,-3.8350593113689913,0.566542085486089
24.404543657111656,134.1680043616426,0.22359276752020185
29.97510493016241,-48.78872072981857,0.8328462782135183
-84.03337364273189,71.00997319090541,0.26670404451168717
-13.372085206791299,-115.0670632493677,0.9282137496189384
-40.15024929340564,-70.14293804468468,0.27669240518619664
-163.75811355626428,146.26400917676577,0.44672228661594326
-61.51527683136951,-159.65013836704696,0.4215172819940084
-21.347142591210265,-51.67946000880281,0.7174142141153902
-112.82281464569321,182.8150695710353,0.5737534941407919
38.61986832025649,151.5175669425688,0.8686977870685474
136.27367040138185,-71.98825432822835,0.5918470715968989
21.328768738691643,-65.85785590214694,0.23403766950496308
-96.93273309378964,-27.217380333481866,0.8072121704388484
26.000424506194342,102.81606852527135,0.36794055585912644
16.044361315933592,-69.07259579738708,0.30745221680025325
227.1841727642278,-88.36824536762829,0.3145810109608975
-5.985917240285339,19.854972859489813,0.7367400935977635
53.260147205468975,40.574243182675055,0.7831824796174623
-74.30612203019531,117.68670802966173,0.07067314123286395
109.6118716082213,-43.63355803692803,0.5672728271553503
-23.283277200648637,-27.54349892074364,0.878315818306671
-17.650010012691414,-155.89148969452953,0.06692406622255331
-11.409089935656572,-170.7110108854597,0.3535401548011379
1.7216646253771617,-49.5099883169704,0.8805864560084459
-75.03257696245153,81.88078365196884,0.17492382399526873
-96.21432541679182,11.75156284935474,0.05129959722737831
-5.7746098387698925,73.67119352240256,0.42984095038489945
207.84353120962624,-206.39158273173317,0.7702154056545026
23.943034870560318,0.15778911837722473,0.12127566779749721
94.34009581250224,84.72538068805832,0.4736676653014432
285.2426272129056,-72.55026194465654,0.9042839815039936
9.191851792745366,-69.60479900941078,0.23165420139782378
-112.45006787962532,43.62726376877857,0.4839570326881437
50.19372780957472,-133.71982677750515,0.0874486026599468
-91.17216507749936,-134.7601205050032,0.6968828745880611
-177.98786784861616,-42.569331743547664,0.9365358661641399
-116.42923019742398,-65.52356689217585,0.051710893284866555
70.21195024086299,29.031980247894996,0.13426528593580733
-4.886294829774064,106.03222510803224,0.05667726541802187
-91.98954455637642,-51.94871410319746,0.6529065551182957
-200.60351001367906,0.13965724379203084,0.9884427493114951
96.99980491396802,-30.288589540394856,0.7440348562315434
-152.1178389505533,4.2633218899352485,0.583582147239738
-90.30566781894095,142.76823924289096,0.5920097857048447
-172.46779013531037,-13.334746850889289,0.5412911594817956
-166.67812890793036,97.5241084159025,0.7386869686929446
-40.888081174157655,-25.953755031969667,0.3949353165491143
-87.18705205501054,-27.99078378850081,0.7555509261958111
156.3966191385932,-19.819837140680228,0.9569134001758856
47.88892808754866,118.91300030020746,0.5486351554545743
-142.73480254065544,-88.17583709669134,0.1994351450216113
43.40665809504739,52.16212254763079,0.559862296825138
-181.74117910346587,-58.926424250554575,0.7451264671222971
-45.51466012147091,-80.7028781865939,0.22946725550283587
-185.23165051975133,-136.44142035773987,0.13189889457649884
-78.9943724816304,15.634062291542339,0.18374766323851988
93.60272340971109,-9.334190945357774,0.14385196349956786
-74.6273695496836,-70.58164608518447,0.21733766155053358
-107.45687228603735,28.559738088435004,0.9531560955085477
62.20786023036794,-170.8183678043624,0.44082136896067803
72.89737852654596,155.88186344568732,0.8433689426844517
