7.730534328329561,19.7883725271379,-10.565888217548828
2.8042393651884407,78.6077324617638,13.400675799879942
-2.155894107666667,124.95359419400549,-13.778035174389158
7.372933926598274,3.658576459021279,-1.551252008065193
-4.030628489202793,166.0772703074122,-6.112604862088132
6.674471278936908,173.84277476707837,-11.595602202715142
1.9547658979470204,114.70660492256695,-8.4496283966588
-7.329405313148275,83.07842927483465,-6.366377690791667
-13.755640335051819,29.86598275331498,-5.829471754371392
0.17985304444620312,96.74668308285108,2.4534697452098393
4.9474734821359405,101.31473352983711,18.787488933967293
-6.500599086602587,163.0672094550522,3.092895632679305
7.504043684652113,89.03987513723825,-0.17583655950661564
6.198860552959814,107.64968136535356,5.9825437091453075
-9.234028653846831,46.089815883745054,2.652999702950093
-0.7103304543264524,12.97019368200283,3.029124525188718
4.843017338903894,185.64913852402373,12.372510088506267
-8.454437158969338,85.87147438917341,7.898161968594715
-0.39912575889271856,187.93288613019098,-1.8290826363927466
-11.08493565755648,155.92774825073147,-6.189205412180182
16.273048428196304,187.61500370557704,-4.99752670792078
-14.445127234682861,46.19346245430618,7.599136589405259
1.0526514704047354,156.98598703854975,5.42181841008098
19.613864304403098,137.3799599570861,1.917036131036436
-4.336169922231252,132.88160105078802,-18.08245344937638
9.690139340134037,156.13904924754465,9.739962706295668
-16.461323388422016,159.04001293929744,2.7067454575453107
-3.8808556818819557,113.44349396056774,12.753190899635051
-11.775461166562149,197.06089201283496,8.926888987235865
-2.3533116178041475,84.01480432999035,-2.9148478758234795
0.2743374956845096,190.76833470800673,3.7980645922754377
1.857867673710347,29.9527444551559,9.843407549690532
4.000726476719779,44.2384713900795,2.4773191383451323
12.763997377984163,37.993893620292994,-4.242929106246843
10.510660843335666,70.66428953402608,15.587134029796523
-0.618822486976712,34.21591153886479,3.239254188107462
-13.69277878763481,150.36031229899797,2.9330804558776293
-6.520558185816253,191.83152594665927,-17.98767610404995
-2.753033557067217,119.4896979302476,-12.458033175761262
2.1879958233554357,113.49579766464937,-4.625910611468251
4.1641185599906425,133.8134669120528,4.37207852711527
-12.418995944092611,9.735147082311046,-10.666021873761027
-0.23497907188797848,140.81968588625168,0.28367626250322836
-6.625688103163893,113.76323476018993,-14.417772694461025
17.87214443279316,176.9424258172455,1.1194522402502292
-14.689785151369742,109.89830831401568,-10.159293414618876
0.8575457337757226,27.20319500855308,4.903080440990443
0.8958565693290559,24.494666850436886,-0.98514534192205
14.11284384817673,169.83853917616815,5.468016042432009
9.282423098793934,186.10585948866523,-5.578353534333617
9.88503385692251,64.67775818610149,-3.068685587268958
-5.747388535455785,90.05243972670618,13.354870005864942
11.118634390257078,128.65321889789104,-2.3920309241863422
4.215779810353672,165.07668028550862,-11.59642178622152
2.320791537329731,55.31130058008627,-8.311325094067191
2.322791021453425,86.3662843668018,-5.559932894728929
-3.4394805539547084,105.77212320090605,7.626887902784262
-11.164509703597249,175.1296880514298,5.119188930497276
7.422784716650458,20.844130440955453,-2.5880936394922003
-0.5282901814892399,84.8964043524206,1.8940050596777527
2.507983681803185,95.00930876864231,-12.418730255356055
-10.665299608095578,94.516684277275,-4.153100827445437
-3.18218593952787,195.60167765355737,0.2718545260027948
13.101194449660692,194.39487156594072,3.570008355903525
-0.9865190721935603,134.30157121327136,-1.378325152468602
-9.53148075723652,193.43176916685505,1.9713356700704205
10.54169044179048,5.125839706760904,11.448909497193457
-1.2526353436735413,115.77119129092391,3.4295473585297085
-8.577728064445035,197.84975503103894,-7.914762871223835
2.0196076523152193,190.3562848302909,11.138332504904595
-7.480624775422983,189.1404652792766,-0.5690711386582501
8.366259515361572,92.64575460128621,-12.481393346099072
11.431437753988678,122.26965548049893,4.81471461710727
0.7181580440420642,189.41047960481222,2.7324249894760886
12.584583726358883,86.87914665841916,-12.00643961763882
1.7862550021693526,31.563321637164066,-8.855193572131315
0.8800869185795692,96.4924892643088,13.571048321349915
-6.66568523107261,126.22370147732799,-17.899168641682007
-1.6837183538641876,162.00952010195093,-0.44958405806677704
18.29013500597349,61.38842409277272,5.062962577205889
11.72859788580527,83.68125385110048,7.79578196344951
-13.99681046567442,82.51324156630363,-8.358361610426728
1.9638218570518695,155.72961112255578,-16.690975448125805
-8.388736047984395,142.74503639054026,3.642594908421498
4.379562169555868,21.520505205741824,3.6855375764700447
-2.806770494852374,10.786273934241542,0.08494857842772105
-13.675776452253116,150.22887229692537,9.751359582860713
8.12874310356139,189.85747525998192,11.658114056047053
-0.8502177718694358,11.548864498853305,17.183812660210304
-2.899390913088009,31.989590206990393,4.175704711098017
8.320408725392435,33.681093800692594,3.7914577989910674
-3.817486556184107,149.8328625727042,-5.855564130107934
-4.978809353307102,65.65169120622099,-3.753770686483871
-0.09792294686505335,2.1807079949917485,0.6540486519300533
9.741993807245066,23.086792211317043,-0.49966463794826677
-14.694439420915026,74.50083943702259,7.141883091718943
3.6428326476361614,157.34406035806683,4.566478977938612
-1.5490439289029156,65.65038608394089,-1.7801586433549001
0.381743109491387,60.35970865335349,-3.870040116269839
12.001786858356498,68.29353830600336,-2.8886119899173175
0.2884624836996157,188.74996788045686,2.0919700677871202
-18.262204325773244,90.10557344960604,-0.2953999938517972
2.7144698255857915,176.45567897460285,-11.895286518152957
1.1767952418119327,134.56449413232968,-3.742959855947027
0.5215962176214458,99.89663949654863,2.5358802473070403
6.457424692001441,3.47906888913041,-1.6735475708603642
6.238536263090782,37.044749483807024,8.988284724459598
9.938094004453374,123.6889856947769,5.7738608512862495
-15.376571242650234,65.87759209797379,-12.705184901195567
1.0136095177186388,174.94866518379243,-2.526880286227983
-2.81079387021133,188.04027857490567,-1.6552577906256494
-0.5785186989819198,139.17655512707867,11.137728040612119
2.9492326844124968,14.740785237261388,3.9922636178769175
-16.642848513264248,35.07386846014286,-2.494173782125209
-0.8262926635307548,176.57513239518724,-5.730261218230855
13.904929891051887,52.66794834413404,-5.332242948792969
9.97276023267057,99.22240730614615,-2.510720005076433
-3.0860159498275728,192.07614312963318,-0.6370513615323569
-10.321020954237172,190.39840865140962,3.940947598642728
-1.678236801950692,86.64006526344205,2.2673170673588303
-0.6087583016278215,19.801590182517216,-1.1892771341056696
2.4241567814789886,22.0449091525996,16.685530906104855
10.522147249790352,68.32808023507422,-8.110010867002957
-7.582261361140026,2.6000539469247963,-7.368468516754528
-11.750156477871995,38.28658208395752,4.404292526606278
-7.856620031189393,182.19778637817365,-8.703272845470707
-5.821568213346544,68.6566955409625,5.756813524666593
-0.015538966483236622,38.36297754841649,0.1581302834208377
2.772448295982071,133.4324653185846,-15.761055889786277
9.842784954116064,121.09833444896645,-12.657693200113291
-8.46365891624789,163.5813039136086,3.773067331763959
5.6442395127712395,197.1635224190763,-3.3365062796222307
0.5239667431839559,104.48010534775023,0.3871074394764497
-13.001646035928623,152.5885791295458,-7.895368140795685
10.828680553581407,129.03754724142996,-6.558462145101647
16.08669719460547,46.71719807309322,-5.497514888579891
0.5536569561440394,60.93686782138887,-10.102448113062028
5.661016955772341,151.40731726398084,3.4402022974747584
-0.5488573561579275,30.508822809759195,3.8455693356262346
3.3464016213686008,187.0687922773728,4.202094678415976
8.321034295878789,165.97199227856458,-0.383916869787795
-2.5985103802687255,86.80356085045413,5.306904947689988
2.130369298691964,115.058686122705,17.813118585625737
-5.41781990375561,176.43078365199088,-2.4040532822299503
6.863403061152167,82.69525630580223,8.65007641151173
14.864517507945884,9.625539456302334,-13.193695574417074
-1.5651173356629577,72.09931893531325,3.166645835709448
0.7194782735266388,84.63905731752735,2.7240599286715335
17.18492080075561,58.187471918995605,8.774124765937676
-15.07096731264758,150.12722310837546,-1.8084423127011624
-0.050766851004824906,61.5331515388577,0.0645543516068092
-2.358834327654873,146.8565645648472,9.867660989071782
-11.438463381960869,64.78996719863659,-5.830334820350599
8.440820998801952,175.331195015532,15.841338615482877
-1.2626858929781681,105.2657387256013,-15.05712855219896
1.0771940563445204,109.2362085590288,2.3213815624213447
13.23577197934145,118.13736335318632,-14.129068129725285
7.123146944943621,148.6141940632751,6.854179898811796
5.986718296827939,129.52773443362054,-2.1565095451424563
15.083350157779567,164.70007492736963,-7.583599208888433
-5.212171846842267,119.52704436064255,9.634585536141541
-5.143544667968859,29.81310779910491,-2.4780474062969127
0.01823449005648295,118.36895896048625,0.10281083383222683
-0.11993712339521485,171.7312453106021,-0.6833944041985541
3.6139072744871097,12.160263348559909,-9.901587838680246
3.268609318182706,185.4970750616461,12.549821305008695
-0.17275486944480603,46.72711924302697,-1.685300620448631
15.671356641376196,55.521418819095494,-3.0121231530803465
-11.97717234101829,76.06026702692317,11.083549331510142
3.3682558914362186,161.45675181933927,-0.6262587138666564
2.9526856753902626,183.5960045262542,-7.809270126728584
-2.5685855184618602,1.6528029298719327,-17.042958677720033
1.5515671517126417,22.381305039675237,2.540434612927812
8.786459783478476,169.54993163546658,10.169763250522918
-0.6950882484150362,36.06845797604272,-0.9327241388612516
-6.975995549323451,16.018152074087343,11.78548807152837
-4.790241832984024,76.73895009673875,15.583264114335464
-2.66563577051706,102.15566250227342,-14.675201033060919
0.06147826390224588,161.000615095924,-18.27129679690548
9.88400933597989,44.10061252943316,8.475307356583638
-4.890785633211155,181.53036716938988,1.2365380943832465
15.470368112250599,88.0938057604852,-0.9449946497356032
-3.1963462727758425,19.806934647067752,-18.980673494702792
3.615698236726219,146.94237731947595,6.849590512553362
-0.4375611114177461,174.05342162329228,1.536550217435915
6.93013728903372,135.9743254054468,12.382948804738943
4.734569936480377,144.9929526607717,-6.473128784570295
0.980291250645326,94.10640702880677,8.279779213854157
18.487935551685503,130.60853769538156,4.218957388107293
3.411816278372396,161.3074259036388,5.979210132499554
8.484271663926005,25.622403326499054,-10.976531276802385
9.618369183753138,57.987230768308606,12.651959603617573
-1.2662696907911666,163.67700757467026,-4.221757555269974
11.615480875193821,17.744307180419995,15.914360839267754
2.96643399666523,29.276709080562078,-1.6793625365577338
-14.96366248013038,167.12031800447576,9.272477677530032
2.3021635307991697,195.2826318335352,-0.9699499787227107
9.518212230136786,101.21195952776829,1.5988347031059607
8.105553723699941,36.40554652272871,-7.822590210382486
-1.1853964412575129,52.100337692567166,-5.536253118973065
10.718362726174302,32.531002559139054,2.7065103751532815
-4.340980358596219,55.15351642985262,-16.10688424400322
9.644494593607904,42.98573037719413,11.729949464024727
4.914146411847468,77.70547378324602,6.179086007799897
-7.150012844419023,27.0416922044441,-7.900203611249597
-0.16338125776365783,196.59002407567417,-0.9306410445175278
-1.7132072586513412,67.55526056132084,11.134101498130207
-14.363016157213332,165.06144243557424,-4.496178071447902
0.6630653726819851,47.67298260992816,0.4227399105867061
2.738768079447782,180.82597448560094,1.9648796353344782
3.7029249013414915,100.56852607313577,7.671613998726503
11.777737946052362,71.31015525832967,14.997297733097726
-16.04196112176005,186.51541107333162,7.150316292128512
-1.4865980111595283,160.73407892334632,9.094340947537404
6.124385035221588,107.17571489566922,-11.632403951992208
6.407520958126337,92.61635751085942,-0.8116940015164461
-5.368980834877356,41.46943950196928,-0.02672435246006417
17.38946279441736,118.41120929949527,-6.355651367298563
0.4396508814903784,183.67884854800246,-2.0301091776118754
4.083037218514831,150.38675348586915,7.331945752999096
2.614639122163026,27.411606192556338,2.5900607739640145
-0.2660065129437234,128.725863014382,-1.2396900074083335
-15.618110507601322,125.35096964922103,-3.566741556752991
-0.4832673291236291,104.42888102245607,18.958785246548697
-7.758778179862346,60.57599493644539,8.266903956289303
4.724394706661235,136.92280244908045,6.983380227005808
4.217052982138777,42.58826204645951,14.893029318493634
-3.239322108364663,129.5493177139066,-0.2519733601073933
2.423326537864888,159.9403659236234,-2.6439524752002215
14.064861805494655,171.98074090382613,-9.357247967868162
9.994543499585863,176.23365876620198,12.647468346295778
-3.3492126703321285,104.95234007406408,6.473480842495266
10.436584413155057,173.3619526638324,-5.692076098954311
-0.7160200380617779,94.55088726240206,-0.01696042083378402
-13.074264375848497,31.259124349948998,7.891528117038655
6.8303465064840765,85.15079916568031,5.708778647448247
3.127198698415639,130.33764643878666,-6.199983693283257
10.633080527831202,99.89799769877649,9.333625695423272
-2.078295089120857,129.39439100550746,-0.21663500107950887
1.4772276037005048,136.36015720175803,1.4407933471354946
-2.668019702305819,160.57382143510003,5.413063999102211
-5.1489823146527565,87.87250593715903,4.64033532125329
-14.377155519971948,198.19070615103712,-3.615056814275966
-4.312908390661823,134.19610907268782,-4.710263620303435
-17.473281890363797,52.02805446097087,-5.412992846652411
-0.4429451150324557,112.09667479507162,3.2109269477500337
-0.16008984101799806,104.93379210088958,2.646533345460804
-2.3415623624810746,140.19380154756746,-1.4352367111173863
-7.003567511062299,189.22177434570625,0.0007745643214581191
6.931313560297781,168.17503841140154,-14.592504508785199
12.416639981548217,92.01412760619625,-4.934193677030964
-10.482002337137324,95.7443086479822,6.851417363489169
1.7174217249305146,43.49957340840835,1.7497557810398972
6.7906110995704765,166.53507042237615,-7.483141279977041
-4.646874515683826,97.85848549053107,-4.0547187572638075
-10.780934200008707,16.03998670966782,2.4448216471868127
4.705833726459574,126.81653956302137,-4.802121093672167
2.8813747693561713,131.91595701892078,6.833428584737753
3.454827058566663,29.529348380704068,10.239980438213834
3.1411489335039158,98.36472135139466,5.127788135929959
3.965105345701656,65.65674597829596,-4.53448668211732
-10.769284122435932,59.282771865277596,-13.373232430794403
-9.494666504355312,28.754209774029494,-6.124606159474428
-0.20092436012265893,116.48856663308966,-0.6511938485213009
8.24869662728083,73.52890934412935,-6.618967971247567
-1.1311177816163154,125.73090705904531,-10.983055838732522
-1.3791902559684903,60.634472734530775,-0.5604307904620781
0.4870624074445498,182.66216168181526,-3.7190877693912743
-16.76018798884563,101.69226577662518,-1.5465293704364336
-2.007070396958611,94.22310741495663,-0.2749336260275854
-3.01113285585719,23.539106251450082,6.686893694122016
4.04667792017823,146.7996859374869,-2.8411333949828577
-17.022885406649337,38.92194242127576,2.1080087480873426
12.323758409265437,190.71254597615106,11.08618164599079
13.146616926253719,64.12742011024383,4.216665966549975
-15.817404158339954,127.80246393046666,2.6743061342817307
0.14386720487481475,32.29769863675869,-17.820234963481187
-15.515723690228524,74.41894833137484,0.5075995776237674
9.651983414331072,158.75928778690874,-11.699294613762442
0.8779015247477622,25.0037796235274,0.9952468026188249
8.552764257064286,70.07025718997919,1.4372832966789644
4.582271202212233,185.72898790180406,-2.8337092292005304
0.761047793661861,0.777730650277153,12.43211056703333
-14.377130288693424,190.33306313560536,-4.761297726431429
-1.330298581264389,7.518179951297421,0.5803295486414286
12.056957214200859,91.71750641778556,-2.2372998173404306
3.726461362558691,179.82091821925502,-13.74663461276052
-3.2498739169049955,70.12477312823412,-2.269696280170642
-9.175432090016676,175.984765364947,0.22825781511256732
-6.305196778746913,149.32640160655822,11.186975350147799
16.584293918898023,79.65589828086468,4.933187794302657
15.945499682918113,105.53178298553276,-3.4943030149318117
-8.053370121829802,32.66502231874999,10.918639691015954
-1.0763945926779042,75.34449999427551,0.6227015904158781
-7.983263700251583,28.55712798711827,-1.176879729070953
-9.10942841882437,75.07634807638502,-4.489802327524496
-0.49218432099339626,38.41367238401043,-6.1076009062044525
7.635429268017965,52.161975476407065,-6.093075672495235
2.0878180595739324,9.467809377396573,1.9661312757034115
2.0351561251458397,129.56300412972786,-17.98238325092258
2.6314240852656794,97.32853811923938,-0.33901900454463213
12.91777079205972,135.9760717771192,-8.613758571992454
-5.2922463455991675,108.00259804372799,9.80422898501407
-0.45067481971039364,107.60122216720787,0.9485669161532324
-0.2709768667029902,168.0589647468072,-0.11199032363805614
-8.260787546845489,176.34674542957342,0.7452501840574086
-7.813881350244786,7.368269411332418,0.8217463143232391
1.1683869696599016,91.2728584895251,7.272943288154586
-0.29813438321110525,53.126712046039046,3.966757796559901
9.567984084933281,170.1156161451559,-7.537328841922283
-0.8604767130648543,10.095810321381848,5.89298757925447
0.7174789758621937,124.71019036743208,2.659651416416391
-4.37131351443344,57.96912615249927,-0.5007673751452147
-10.23773701574414,22.7751910104546,-10.454364323566805
1.5959273549105137,57.03043003795947,-4.411657893566931
15.165689548712987,160.64841541983103,7.237973169051116
-5.794192378359,186.06730252853148,-3.4852652549246703
-1.7654091202698952,43.8930987471623,-15.746045425329259
4.437228109920821,80.27406004143043,8.15249153774163
7.531944435949728,155.8110133807097,-12.750790887872707
4.281449217643778,92.79443956393523,5.657455459383797
0.3284630660185522,14.862229208633405,0.19257532681464087
9.152468688644463,65.09406599025269,-5.808486920096088
-10.376907343762811,51.73922979092447,13.122560481530584
-3.335050434057915,155.25960962962003,8.501987109309567
8.315646326396218,11.945635794189213,13.096538613785004
-2.2465147401772665,180.29262471894742,-2.334172292855809
0.9383882832393786,183.51906377972716,3.6503120258442356
-0.49452255245460824,137.44320942322457,5.487655054724079
17.769015831242164,125.14748564668135,2.7970921295167366
-6.637951754769368,63.66463166362164,6.97586529641776
1.2878435006463473,92.11156583124311,1.9011584180485914
8.823879958596352,128.91002628257766,-4.52495573709083
-8.016098190104332,96.46370405911964,14.607316857783713
6.113497380652025,52.643922209929464,12.70194753228731
1.0143951363764456,121.16278551128437,-9.88403961035111
-7.545452959170108,70.74639583424648,-2.904461658361323
-7.814599399200425,71.00559709942453,-2.8893666355254144
5.218738806051935,39.96835486340142,-1.1407213944305725
-8.539571238483932,78.21175272558965,-5.57460783680774
-6.644439348945837,93.76532212134747,11.798210426891238
-6.839690324737429,42.81954241087631,0.631512045477849
-10.451395190560923,122.99563140273668,-6.309903451785467
14.736381364799147,119.0703720313041,-2.659187652841318
6.775190310373557,188.71305276268117,-6.400802096882965
-5.843628998781554,128.44187416764365,-11.852109786232765
-7.791836731649252,76.66825033232787,-3.6769295473337134
-12.824949517101114,137.47921963893873,-0.9629478457350293
-0.5930379765078877,160.77458083182245,-2.3007532594740643
-4.333890758412187,106.29251397431436,6.301059152110934
-2.0895173460380008,198.67861868440082,18.274748871867878
-18.32530930835671,146.01775156171118,7.064457825013573
-8.003748821111957,140.5396028795704,-2.0637199336399323
1.4936487533481348,136.90274916547935,-6.049636263623676
-0.10186560197385224,29.201942850853,-0.7178817426572113
-11.008007861148089,37.196870262869595,6.848489754683994
-7.177358167557821,26.77087512894083,18.534815597880993
7.2017037999340685,85.61999665348092,-14.957968802989086
7.091866819925717,126.31340251568759,-7.5729235531986925
-1.190943758993201,99.09291136779512,9.595758266130021
-12.84648593303586,137.33034371128292,2.275671347588365
4.055740657511184,3.925755493281158,4.4041821500252505
11.032167217940778,63.48554716290362,-7.110688380471068
-4.186213918326596,27.591962820222182,0.1469642857543129
-0.9659175845138496,43.3906379281136,-3.1095314019365494
-9.975749382921924,70.69583768287282,-11.262169399610872
7.492016717357225,154.64392407137194,-0.7939892153787854
4.384133896487311,176.545800104997,8.87192809788993
12.124617431389753,89.83728410711755,-2.9630049182990623
-0.8931965047042874,28.179746891781154,1.454647698897674
0.23914980764368682,168.35575777570128,-0.6151456993304311
15.45990840160252,161.44213092885286,1.8176345697681155
-11.69269664888878,72.81950806951325,-8.16810999595297
5.610669159032219,51.80942928474761,2.056748759216826
-4.284562091975648,140.39590847771976,6.927806260269427
13.362986520727844,57.008173141545,-5.3114019154005225
0.3982800186368851,76.12949489111236,0.7487418574281349
4.604633359912994,167.47178887145674,2.1173292337693534
-5.876607093760478,46.904419797890576,1.3900071490269432
-0.4725777861315999,106.32606487241296,0.03659157218132695
1.0097252060545707,15.080217181677913,2.4871872606317775
9.802146165442094,50.81472862744909,2.5539504954785492
11.846061641003923,193.8268738025725,-4.476070710997343
-1.5542605086195,141.17658275776017,9.576559852737601
-2.849743417203446,157.88255870193768,2.315973557099573
4.227486664656244,142.3978748194112,17.097515219630072
9.112921693711295,87.45385011924638,4.51079541522072
1.285583363235118,171.58195292270233,1.3244822427243046
-2.619212311781888,40.93011072989776,-0.03355348783403665
5.157613972699485,60.0874110281896,-5.0648302573861415
-1.620702210732312,155.45852803831542,7.496887504288842
-0.043003651135096146,9.488572760740354,-0.08878012391355701
-4.551900795691656,54.72674809512177,16.728669910207437
4.0773636275124625,189.08801364456653,12.018257628173492
-0.8835026900658486,88.08731503856795,3.3944449493312283
-7.676526280162528,1.1950904315677358,0.43994456662419396
-7.673302190240903,38.841072703075326,8.968689458618577
-7.082772370912199,102.80568270985846,-0.712723692430315
7.231799098127325,148.43099985803926,9.348829045168277
5.109641690507928,107.23665327686564,9.027148546389876
4.140717636907455,22.788482710847568,-2.3661189352633096
2.325139903633005,18.65881764347479,-2.888364357130668
-5.148613033956143,198.03341194192862,12.966210218647362
5.151929693579801,180.81043401925544,-7.13229943915724
3.3073605969288775,68.03467365769973,4.626166379543267
1.594276351520267,23.985696955121316,3.7633246284492836
-3.3141038457722214,180.17447505351674,15.709265394463719
14.213161625098753,44.50755700836844,-8.87996789109843
12.197897666395017,87.38928779576267,6.778748196476878
-15.225998405155195,43.57476429079572,2.0411574705485447
-17.333243630845526,75.66122118736678,-7.917984546732791
-5.44648941394563,192.08166027966814,-6.881190665576448
-1.4356009349297505,105.59453952131828,1.6631264704563626
-2.126131193916425,148.00408649501617,-8.508360628167763
-3.1147632619680707,44.64991343505791,0.9971828574543536
2.867107621607173,172.00402918209704,-2.121134935455973
7.112538836253705,161.43926876158687,-12.165996256198017
-3.5836628275735514,94.30654959781748,-5.098136381831384
-18.780809362872784,79.32974868246907,-4.832519095140737
-7.849599779987236,89.49925732453477,-10.483631249117817
11.402052412544633,104.94460765425619,7.729716926959255
-0.8644660648167236,136.56402274185203,0.7168954770841117
8.043671161824081,106.8129573160007,-9.765147613537469
2.210554568726598,60.98114658820886,-0.9544007726143048
3.2142370324955936,146.72456097661552,18.262907485125695
-12.2788616162612,40.791579562437306,8.837858840259557
2.1003194013035777,40.25186939019545,3.6453221312694226
-4.0720931330713785,45.85191031154952,-4.057779729203426
-2.097674119651275,80.4881213713137,15.365866658133147
5.349451023117392,2.297371748033439,2.931012056504106
-10.463312172027313,120.45307131320091,-10.659274096920035
-2.4669459765546757,177.70603963715365,-3.3967650951599615
-3.1427943667258686,10.68289729796299,3.6999865921750983
0.581626681432055,16.69286175361584,0.7492961984551243
-11.369987462466938,113.24314692733637,-8.575347157345734
-1.7728747166817076,44.6363812413114,-0.7165231892886144
10.98341827997873,7.4756537192906425,14.448812720384852
-10.556245591271495,69.02802845854158,-7.859520629086021
0.33513257531586443,196.27007103123702,-7.227709365552982
10.072538743111952,5.587179541198273,-2.4828529319042505
14.859946325305705,183.8719038264962,-11.797000781106526
-8.375968931470412,84.39009034988354,-3.6208682180317187
-4.647739804371666,162.97509927175852,-5.5532865959101025
-5.6536333221084885,162.82511946030792,-4.952629857792874
-0.1871076349739772,72.30449191439013,0.09979153576607784
10.811895438257668,169.0203831547471,14.746506104103966
12.734537908450354,113.90123451894678,-9.138188327839398
-4.5245633729410635,163.28240609172596,-3.0287774155143006
6.95412752953552,50.86472158536408,10.494126126095589
-13.321213441198536,81.16817516473778,-6.351710336438422
-5.304561262508065,60.71741836461753,17.44074555058868
8.908186973109384,41.40906419643316,-4.634213088450649
-14.973196464899996,47.306814501964055,-0.26811631347148
-3.3472074552320605,120.87753427683401,-3.1096536908795342
9.361926079495984,91.953610819239,5.150231751238139
-0.6803133762416655,16.49396544094244,9.332718624626668
0.609789447926101,144.884589770968,0.7155540751457793
10.545646561990846,22.896337954846224,-16.36664423894354
-6.051743922373939,36.46858527938803,3.170284383613596
0.5771435956230787,139.22484112501576,-0.5700977336121026
9.693653970824915,161.6490446759134,-4.790969228928494
6.28748709986746,66.50583615927566,-7.027972430751059
1.9443798521228288,34.024456857955634,-0.20955260434563858
5.674137860858671,179.4637873657839,-9.873566280909593
-15.239049866898688,152.82151958128333,4.928958423377249
3.5761490551803967,41.86379970674486,-0.5887109839247909
-1.383496264452288,128.48381248646925,-3.3555498481363326
-0.22442976994760616,157.41053256653893,4.664356571741285
-0.9351622892677173,199.4124312931313,3.1787104800983714
6.856227359611585,76.01987986655081,7.311775733073118
13.715433205144288,119.08076723197614,5.05253608701306
2.794881238786899,45.63797814599959,1.393321677619777
5.181918648260131,63.77580869013519,-17.57950644451128
9.808446723490137,58.909465953317095,-16.877962783730574
-1.987147726445182,27.1960428712918,-14.316421602798615
-8.978978269271456,162.34033632915853,-0.11203167392419713
-1.6629417086215654,177.02821436589966,-8.453439017507653
-0.44200116305314097,43.52479054861713,3.8118639250005484
5.1878163785909495,20.00155980670961,-1.0428934164486612
-9.102337913129093,25.489996005137485,5.954123221855018
11.580850777692053,122.91251339996288,2.2821341494764007
1.8018131940252249,71.29316073822018,0.7823502257330383
12.77525434840513,87.19081346556743,-1.3477239547483015
-7.669874421047212,158.24248357796498,-9.164490063089838
13.098948120309787,121.26952114476859,-11.6721205968865
-1.6467291496253615,69.90392629998448,-0.1479196365917284
-3.1617250419029888,34.71835371621408,-0.9948659030305064
-16.468873365195762,140.4224450846275,-1.6198701979547216
-4.689664568621436,8.165524999874684,-7.853188882319671
-5.024828966396592,5.975611895719823,4.3204311154387955
-14.11613094060174,5.58690285219714,3.8286528689709316
-6.630853714427328,124.72554056527225,-4.1740111045514645
-7.446936508294074,191.26195032639674,7.726931077830995
-12.919773836405437,179.76904610920263,-7.310213113221256
17.59499349430869,15.724839359345166,4.972880295935942
-0.22512967020885882,125.00608895048222,-0.6021293395168784
-8.513160448205566,108.84913693894906,12.348030172772843
0.7434925707865477,156.65698344709483,8.280937927586198
9.435369419396478,151.21883190701647,1.0125910178910897
0.8672722212462389,78.39083431719551,-0.020798120215941126
-0.8799380725944465,162.9211505363064,-1.4990212807025267
-1.5620386241306103,116.67656967676999,2.6880357968661714
15.493662171239079,146.64905404812112,8.7391876660689
-13.173025418829633,41.85107006583828,-7.301095353288087
-10.213722713487591,0.8113575708555976,-10.396927591762188
8.17164819756998,173.05233963083697,-1.3445862355015321
-8.013660717947529,8.044179486928993,-3.5068698424804188
7.102536148245255,118.00060813838438,-18.4644367644218
-2.0984370442649842,187.27343136199767,1.2008123714997363
10.718870158195337,191.81134601757418,-4.911547885895546
19.148716818822777,122.27216457367543,-1.087517596501269
1.7926561034091124,26.99148767892403,3.8839229075038095
-7.890060876139229,179.19288969000593,-0.21784322552797186
-0.5292590786514034,19.538911865315956,3.209868091857518
7.815381643487337,172.80209905261154,12.631149299051133
-17.723093774458267,95.20486213533974,-6.136248728260467
5.134376029529365,181.2625669027223,-0.4505019606477171
18.105477548089997,42.540028112811925,7.044048140500768
17.315221689307677,148.1943294912628,-5.380023636505939
-1.088661699652848,16.521553282931343,2.284643549688081
1.3730370921150696,62.496836616995566,-1.7216644689479774
-14.951197634386343,70.07749839699231,3.2082603488598225
-5.247115760912984,141.78060307295632,12.04293239080603
-7.069364009352153,187.05317427567576,13.664875574803682
-0.3297236939247826,39.21564722113027,-2.116247039577949
-7.798202490025031,164.12844399482438,-4.7177213723960225
-2.337982613309143,133.02533229665815,-2.8872080174531725
-2.0978357011460025,27.58672971670022,15.309399847484354
1.0157664175198302,44.54057964127549,12.24338329784533
3.9513090746829977,171.7488026190127,-16.088503122000297
-17.921803325282273,92.17079157329546,1.3872687060059825
12.361481622334654,105.90037981408153,15.545779521232284
8.388789247344771,7.26392078417939,-8.182451653609078
2.3607921677937744,198.29008490005006,-18.247179694697774
2.792758757118141,164.68087404680475,-0.864494287213399
13.771790558062468,81.38485046881362,9.041515651699765
-0.35983830767092806,68.8329148273827,-1.0642362256659923
-6.926758281255015,114.66242889663687,1.3637470910089973
5.661676832288514,145.7053738407992,0.6476216161146369
-17.317416763597457,143.0246194854884,-2.935806105487702
-0.928715065720826,152.88647531304002,-0.6030826183952355
12.368827682805339,49.394047588605346,7.001528065115566
0.6414248056783575,164.34908838286694,-1.403879976586001
5.972096054548494,14.063892709876669,16.721081548692528
-0.7357352170482292,110.74917107867184,-3.349828636053741
7.477772370699919,2.5395312615364762,-15.340160771728247
-1.7590492462899405,110.55771518184602,10.33428696831822
9.894077390210175,188.35087780992816,1.821762124473595
-4.384554458794041,133.92173867643646,10.830276512614866
19.404683789363283,53.46631877300847,0.22613344379878292
1.9854329989854118,182.90440932412906,3.2005675477921485
-5.8247531891677085,51.63457934706683,7.43370524417644
-11.180643765247607,158.60346083832275,14.377931367096158
3.0260198078037526,7.462797816572353,11.996664746227644
11.450351137752934,111.03475269919565,-2.8069113735406654
2.230415285641421,95.67448263656698,-4.300872597661712
2.0905781561875343,34.02273126537554,-15.510769393700611
8.938238701534653,194.64108415978671,9.787879987429049
4.532141121313637,179.64224774998894,5.798339733184545
18.07216509562914,118.1691842489782,-4.331928128517992
-0.43041576074614546,187.19856321434088,-2.8574034313994003
-2.682572474598524,61.24311799939412,7.485422689446873
-2.3953184682590463,168.61447987888226,-4.111002991240099
-3.391688581089454,66.35087005732797,1.495355486734063
-7.333244757729502,69.73215743395443,3.3708864009985926
3.5295587920583222,94.25929076312616,2.260165738324528
11.509636630140726,144.85777341758808,-8.211715584584693
-5.857995632459138,119.05884941027283,1.735074031024799
-6.190379744547226,181.2258489258611,7.580052689314572
12.099096695004613,65.3031691079581,0.1470857120493959
1.8622878399078935,114.26377824722813,-17.07134924904935
-18.93935696666758,86.72759854081924,6.0519842804233575
-9.08110612036131,138.67428689434988,3.4501019780356974
5.312351620526095,76.847268501227,2.0649965554730643
-2.538021166479418,87.26821166640164,-13.167725911430976
-5.1628425103297815,41.85706774269682,-1.3096851499425473
12.063227062236974,83.96160560247097,0.541844248632051
-7.844223494387423,118.33871418756527,11.49137157360647
13.218634202619006,96.38627254561686,-9.308037406050639
1.4810852852939136,23.713284294522907,-0.49294148600452675
6.472434976581705,36.772143205933276,-6.311739708808165
-6.181650576937344,170.56195919451136,16.506701606642935
-4.213534264966065,164.32255631983156,18.832826448611744
0.07649928444879181,64.03427138684705,-19.40396905908996
1.7970622772437383,128.6053781945365,-3.7865130675026566
3.7905284171769242,22.920870387729565,4.756667122254064
1.5913547528596437,13.653359062779092,-2.297089635708886
16.51006538808552,6.035827743078714,7.190348712559937
-4.220279611304038,113.23124400677325,-19.05661001086389
-14.19488691142987,95.52177089921234,6.708735095738542
14.485557458132389,152.2470320718692,-0.3430200411976342
16.44959423687165,14.438157339196511,-1.8253446581513046
13.325172887320159,197.745159002053,1.4351647493874713
7.466829893342253,186.11990996857338,-11.22424637815302
-13.641162476309376,135.38970769781247,3.3509676366216277
16.414712127248425,100.30720376413439,9.78511748055507
-16.263021258868548,117.58136947390219,7.624259427906491
-6.512212948912845,32.66415016452615,3.04514408213814
7.737181998585852,11.00401061575842,-5.168595034101381
0.22598457907570613,67.63118578656304,-10.151342278093065
12.987551354170927,180.8118705146456,8.106813142695707
7.767718843814588,163.0168729879579,7.941605036236328
5.189157649365368,15.535123969374132,-10.444816407278394
-10.84335954031606,140.41812057904409,-8.726918169788002
-2.71292415162703,106.90678912534291,1.694149950831711
6.548915446200318,161.99402689142696,2.310069592265395
16.04567695108209,152.60067618762181,4.210021122655533
-3.368427924117606,108.30658363242698,-0.9546346887763423
11.511491864977012,73.27141973775537,7.722028809613068
-1.2497122864277994,118.69022533249559,0.008251240832883918
-15.06653232274039,142.33553289526967,-0.3833913833271381
-3.988285462263239,198.3435523815354,-10.730802830839153
12.507345242825414,85.06603916697988,4.991052235562175
-4.018024597979475,19.928003168547768,-12.209149753629982
14.438322366879401,27.51829277756437,5.7795343577260425
-1.3181010838925364,118.0119375219641,1.708817035920272
15.310394186379922,185.5436012956225,-0.9789777193485101
9.784417799924725,174.35396035654657,-11.223110529358488
3.257901832017038,72.90223902758211,17.36234114701114
-7.118522300708396,24.829662227930037,1.1693038627187455
4.195985813293285,8.501875983343975,-10.177917193075928
-6.074149973867624,180.20626630720594,-8.997885371466122
1.1433085432613266,150.36997509828,-1.9995837117135327
9.209131069094319,114.50841706131179,-8.082985674145005
12.44326299738865,34.229806018833166,10.732871549155318
-2.168911371134051,144.42489071953727,7.996691124480659
-1.2354084244898407,79.5443781324342,13.831477681155235
-0.18661135812106106,53.98814272975798,-0.30756401689395835
-5.6325508520643375,38.72054516556038,13.54450890207623
-3.990260277919797,121.05901619362707,4.446866442281558
0.4567017764286926,127.03688680764154,-1.6977425884303192
1.9870016678359934,49.69276078875391,-1.1065307557998632
-6.131000605876933,25.53894928912952,-18.958594400500715
5.916140962902742,174.3537568744621,16.83538136557929
-2.327361952814673,130.90203192360482,9.259305556866352
15.29065546375091,179.95518103574344,4.653726361861759
-0.491402897205493,46.06620112535378,0.5567833486782398
7.544498668119819,11.679298492255885,-14.98524321556563
-1.5989597875326171,15.993442309546936,3.9928335501951646
8.257657365108575,14.837460588172991,9.409472918501507
-10.503594574299875,20.609606163383496,-4.603056941467309
-2.7533986484501005,66.8411418040533,12.94888521971827
18.391227582193288,196.59350422579237,-5.131643225390285
-3.975392216599404,32.767870177252604,13.338724758434724
-1.8859438151951609,183.82045549029388,-3.693628159539609
14.767211872096885,148.01774998072227,12.422011253398741
-4.318555468080442,63.24076209474778,-14.709674878396306
8.574786802708742,51.37018994176368,4.458196943138905
0.2489278431192159,96.6080891183967,0.6669216441253834
-7.0985348573822185,13.995736302961603,-8.416885182304123
2.036146496737351,168.12285141558544,4.376738723176794
-7.2215503558654905,48.702641706739655,-5.0723726125402395
14.300258128974642,115.73963650842245,-6.416797204358966
2.4247708220489224,132.66517984362213,1.352820006106459
16.209847531585535,62.682254135669815,0.808459256555186
-3.5774369357974027,78.38318800796979,7.140256230915434
1.1810064153094912,95.1947503054891,0.09736554787999649
-3.2292101683867362,86.93205747497386,4.517156610139336
-0.6975643091331745,174.85581060018228,0.3279948072423362
9.1519109824485,47.58179029742649,-5.068990034078562
-8.968565620383073,48.49000175447278,2.953434781083571
13.335408978455737,106.25025901247909,-7.6396387936473475
2.409436786765363,85.77648853273332,3.0626993247693584
4.594363470801701,22.270871735436405,14.274422546870264
10.030914163292843,83.10089511137105,7.189795416190409
1.721936700448885,21.032090241691947,0.23946603125066548
0.6746906864287439,172.94553466285757,-1.486537250192109
0.4821161535587626,132.859654673296,-1.0749661367797034
0.6261629905790209,63.56703605530076,1.1012460901699217
-2.6987642972448667,111.6008655945387,-1.3928986975654587
0.8317266177137965,131.00389050208372,0.8983064062346112
8.585438642143966,130.4500938055133,6.092000910585877
7.264659213357118,60.69173906068512,-0.2031585322207121
-12.478690236330198,148.02857630239006,-1.0972229492498775
-1.7863186666849824,189.43397000739807,-12.045403077803309
2.1829338001255834,85.31910041385966,6.181476706978811
-13.787549782505575,166.06314731155132,-6.1180817160209795
-13.899831376413493,169.19710514024757,2.5239276969048277
6.4311319594731335,44.060095393476594,-9.449099536786502
0.7861494852432028,4.654644664774699,0.9621142452267689
-9.948189425135219,160.16528479618754,6.257062347338198
19.08857154815131,86.45338388835,-5.962232456667392
-7.75213537642564,189.97397544446267,17.557137572093964
-13.07357549221047,174.60988250157934,8.106282747150408
7.481678872059406,31.198585279749302,1.8828818603701658
13.089115703296127,49.396977435631314,14.961823574808085
12.665760467335389,37.54227827102312,12.263683848428187
-4.2802257009149764,50.322694553935406,17.33609581205588
-6.4952936009592985,25.173395838005753,-3.342117181779771
-1.393192788504221,0.2870319331292004,-2.8537685735452794
-8.072032735176078,138.26691563870912,-4.067566299236976
17.24531016605879,62.89648275870952,-7.166152465932449
-0.11867757896238292,156.81219378020074,1.5082042824351598
-0.01878271793353833,69.38805765167051,6.73445433482082
15.981270693763737,112.01265887029204,1.0633025956539213
-6.218684243476761,126.9803078214989,14.440580444634017
9.092410452738692,14.519903114377763,-3.881195836600693
-8.696544563213147,72.35466419586787,11.746039295598605
-2.439414621564243,44.99526721688041,11.463710445901192
3.0240238053210815,111.17581048621155,7.160678494737528
-5.584738427406822,144.48546223729258,7.893932296381026
-0.7905911606620601,126.3974200491081,2.4831652064978162
-0.014882019339706329,130.15776567104123,0.017480059149215257
-1.1522341806163685,122.32358075815499,-2.9434285232310957
0.439423361467517,59.0470372133294,5.764831226822462
-0.8567408471368105,59.75521054948252,2.8296111845422733
0.6077424898074644,66.67139275392107,-1.5208199686560513
5.294501970853096,198.51941028065352,-17.49044627474511
4.895989266509755,86.06733634597761,-9.14488229224411
-2.2842196738190736,31.833980205980204,13.002657520920751
12.937087901023437,166.2299921529258,-0.012268858524031203
18.100209100495707,9.134665442005163,-2.8334248460072953
7.202474718399512,102.04909802433883,-5.039095113595309
16.30705365900977,182.8250240260546,-6.469645203017636
0.24043289504843465,106.69082708711512,0.2501306401796746
-5.686273597426309,12.829869988360043,2.307247229572086
4.754558867540472,92.78474823906062,-12.861350591453668
1.7699376318283138,148.98931203803215,-0.5464962505790485
1.6901887997564027,186.33282444045437,-2.1919987458682857
5.821283375780608,54.669095870082174,3.5335830584852763
-0.5252940955116081,174.42750740167287,0.04271384142779363
4.204620534292876,73.82137456217113,-19.33185883311247
5.080463393144932,116.9134665321055,0.33926786148132243
-4.5666092023915645,144.93876031735883,-0.6736277809248511
6.1841001635343185,85.03901385018678,-7.553297204630604
-11.101162111396292,19.639304793185563,11.281179064621098
7.230976080981409,21.552638428100536,7.361577865554959
-4.786258510801939,144.57565056954925,0.9457136258502049
-3.159075122191098,95.55567443110078,2.493226304931843
0.12611154697186147,97.18294377784503,8.882865906799982
-0.3190087456617118,24.434147082127478,0.34960368471531905
-0.2946542912684385,107.31740592571816,-1.2860818145050041
0.9161524356690317,67.64048620625076,-12.218830555774082
-8.3390990796852,195.08161668042615,2.249790520290072
-0.9014278497654552,115.8169139833445,1.6124046530786031
-14.611027688716899,133.9738732412946,9.417475280855804
-1.9580810076603665,23.26225248165685,-7.29234231556618
4.230161335919858,136.41932559369818,3.5394516292006015
5.152702589842246,112.99630404541874,0.03723368079116858
-16.941769230974813,9.139323789089104,2.2131416846809318
4.3817170120563285,43.38526859850897,-17.326844017637743
11.288795225362946,58.777821989853926,-16.349944483823634
3.3108072837448717,17.334488444742945,-0.19480127483269438
-3.9190753974259245,160.35814658620086,9.897360339558139
3.8676761936485526,127.80164447257857,3.1989155153725033
-0.25539566836568073,194.13679317403881,0.8748580887915165
-12.606383379675403,198.38944532504485,6.329604842507686
12.491424564855576,19.674999310298837,2.063506120023871
6.091562552372546,61.15455484152845,12.334947895412387
-9.823945565156764,8.501609561790735,-8.948100783201149
-4.479287716607668,64.17855913473996,0.520732732468785
-9.923603871164262,184.9398887814573,-0.4678432327869545
0.8978875522518247,75.25870852667423,-12.055937920961005
-2.9443333074325944,10.091414764530127,7.4802069409480305
0.6780716607276512,69.63694988219025,1.1332488646334613
0.1403269126196436,0.4833151316285811,-0.11961921388368718
4.80266906036695,166.73398232502382,-13.95217140891877
-8.566949884759007,34.94219627104578,15.831581564386203
14.360534450508725,116.08849254442623,8.016930343553765
-6.3187888665574174,143.7170437113342,1.3100515304929947
-8.398638779486577,83.92292758283513,-7.755407655858702
-15.054694432266437,50.36878744896984,-5.581490730371346
0.24285927584385295,165.17536114020297,-1.080056052876257
13.676655607908636,53.64640592089975,-6.5846697076522975
0.7063878446881714,179.86115284301107,-2.692550993723987
14.04629365185215,46.60974304897285,0.9321800449455684
-2.2869292653808184,140.08400107540055,-9.699142222567936
-9.56172838969874,146.16530458826148,11.36879440362554
7.709541923760705,114.01084565506116,8.94197445619725
0.4096027627739441,45.23609383392812,1.1533525318099855
-0.559228564401565,161.37540878650145,10.985592258510497
-13.213306491662587,175.24761776077926,0.3506958158347728
-1.0581929772261012,155.38164643357834,-13.889167716331972
0.2631116667803215,189.70648082714763,-2.444473927259891
1.5324589221313847,26.48260801236848,-1.6417988033196005
-4.2767637114829835,8.115649754912635,4.893865657632044
8.539377551954463,59.40289059630868,-0.24254478108394315
3.700033006926763,176.1911419322493,1.2456515255377123
-0.718953148312467,193.71263074223992,-4.85494639545743
13.795385337305365,142.14005048512294,7.1329155682183005
1.7667044834999215,139.27650565605816,-3.022007254771236
-10.099334657334714,48.362318768556435,-9.361890604061784
2.1304922535201984,62.08554054697601,9.374062225464426
0.5565494745285551,184.8762692404367,-0.044385052866671125
-6.026735655018683,0.4144956759390306,-11.982100913239405
-6.1214804034058465,192.18346411269113,5.512905339566802
0.18314452291524155,115.93874168533486,3.3853093959068854
-9.630147434549025,121.26718386196407,6.625159439480043
-0.8547525253373613,44.9776333254039,-0.3113262180633117
-3.813810267997462,116.84464350308362,10.685847616346239
7.542565888396105,121.24630517210716,10.20479891689362
14.86626249711431,64.68517518871502,3.059848665799677
-5.857484963121741,21.0247724714282,10.711557740914344
15.936216181248472,8.788816297061475,-3.2013468714674795
2.07352241169014,32.262268252681324,-10.964138610981836
-2.143527831655805,64.21611465638308,-10.001337983979482
3.0456218502885815,38.83085527015402,-6.047293857881216
9.126169358692255,90.12491603855888,-12.061203618448685
2.3762030699822976,93.87896405224656,-4.066214680243701
-12.094956528812059,12.317927915812943,-5.978936168135295
10.029803780794175,31.97795610733527,9.39462456386375
2.77349806231561,59.56628620269173,11.275557467433428
-4.0718779085583865,146.9657265612016,10.796607010123841
-1.2399570616662974,152.8839376811682,-5.962935727938258
-8.278602858570371,105.08307998320605,6.6116594890796385
-5.234033139142486,43.29534028978195,4.696464817444578
3.3965181597791276,30.368094845063574,-3.2585099267040003
9.18798765362409,44.917590267328045,10.024446325247656
-1.4661107304951928,126.91154568923264,5.690283521197151
-0.9977226917109744,108.549891473719,-11.876751618582999
-6.180924686594783,167.3836143323904,8.323391717136213
11.096316399113787,145.69350376543858,10.422588170513531
-4.428628307995665,179.33446398303192,-17.062802758722512
2.892054557244242,4.981277355574099,6.486801670065767
15.947185578513574,165.90497899407063,-2.0799085526937615
1.0512415375604833,110.72004740309833,10.652857118479702
-3.898001327417615,158.1067588673583,-17.450304568912944
-4.549751262290334,11.152366923086543,-8.200570972216251
-0.05899531893846141,101.03867925652432,0.15811582720883727
0.33101071806791554,79.75169901777824,-1.5439495010766795
6.413985286202843,92.5259013751597,5.41540102574946
2.790561729817136,3.4515592211422863,-6.7817572002566635
4.311613265703284,176.01995070665063,-1.225848332246693
10.059924048527384,30.421490117641703,-2.23759400762537
7.274609299712916,69.47281452578989,-9.096586223125056
-0.49429157516944433,41.95536776269473,19.08192260548528
15.933178599507555,70.40112479422218,4.305469745038501
-8.10899605913349,56.83169693707579,-0.6509733845333745
-2.384081516129858,80.95351058331053,-2.91069873950641
-10.16920699142645,27.38316350218062,-13.381413027125204
14.952345191963751,109.88833088780126,1.1995526158322132
4.67140587660453,112.43490812670159,-18.075285551838572
11.90327988347744,75.15350605644097,-9.337433085298134
-0.14623876380683365,79.18400712960593,0.13603436895834867
9.959299977364203,27.72670464571052,-0.8359780886070997
-9.487375957886869,49.07638027484709,-1.8743488241589332
0.28533864871750253,121.64060627398945,-1.5056479827095894
-3.9134670223604546,102.99156638370346,-10.151520132475188
8.724264008330675,134.64743842772592,10.744479029134908
14.845137311016693,63.202266594276765,6.65832321254995
-0.36747567621138955,22.21594475614801,-2.020290016913613
-7.645390695668404,9.36379911794818,17.450042843986715
-2.378721661597431,81.4215874469593,4.615739709858224
-2.9121980260383977,186.92083651846914,17.544207559811642
-0.3445055191561202,187.18619240525547,-0.6864336277208681
-6.214749683628302,165.7215745757401,-0.5739219576832812
1.689900107016975,91.96360258626089,0.40015695210278723
11.343124207027973,45.74691296222748,0.9415767046602365
4.832084047212919,68.98103376680362,1.6807511370360122
