67.51819379787581,0.22785043723258513,64.64035943988297
-41.31981501271067,0.4613576963024665,84.28762354421377
-147.94516630539613,0.4125258587097098,-51.165582564613324
198.6890579469107,0.621581226810029,-90.19039370136063
-70.37811131534886,0.17220575758484402,8.783151716835476
118.86744139221032,0.14873599480598765,89.06806226387035
-76.87004212795836,0.5349425042905529,61.07580068675694
16.361771418970083,0.9021902686620756,168.29366631487397
137.45719828772835,0.9087334656632374,-122.11860678326354
103.04341130202812,0.11595680591167301,33.938070950143604
86.39475135954855,0.8720381677797137,23.02819685589795
20.80544211303689,0.30196379116396366,-100.6994971942538
5.900303934437285,0.7599154487878457,-51.769399494852486
-66.06742586525867,0.22654991945220027,48.49890596405334
-83.85681779157767,0.7965226148525895,148.37109774937096
-39.13880264740372,0.08305456692854374,-75.00866198844145
-115.86966717994598,0.6139505449051003,3.495118264682543
184.67661859332702,0.662007456985615,-52.07634791506259
30.826251305669516,0.3025137922109853,-149.07998704186275
12.881759234565463,0.14146309154430892,36.00764209223929
141.53323525800954,0.25202023162767384,-80.44163445705593
15.677651127141578,0.1797394455077891,85.82057068148814
-65.69712934014316,0.8427965462272086,-23.44756978949088
-43.19986949394695,0.8167920760941555,-14.404667658963904
101.30393065365197,0.11461818570892501,-279.01606473391377
-161.60211451770348,0.16449295223396432,102.02174929494645
-60.17981483207061,0.514175935236181,-25.758297754693455
13.41433515600925,0.6195941158475112,-62.93266399897664
-10.377504686634046,0.9228207089959429,155.97843854302232
-105.75422907533351,0.4051464677704272,-69.62209998180285
17.179811740563224,0.9859794981215297,4.782946715347428
107.86926445801952,0.512556953185704,-26.442302144117242
-60.28846331149653,0.7113505759411388,94.37706681096982
45.64765191218507,0.6605562707517277,-34.92972667450148
29.14730459953217,0.03331957710316835,-20.778664049298808
-79.20331928931827,0.9126404031441459,-114.18630149250131
-222.58106170236124,0.9757737427012553,127.51679453140363
-23.496057169311133,0.42523985952241017,148.11198353546357
122.14137898011586,0.4537930215729067,143.50333816960142
90.20386471647737,0.2686600051486626,-164.9074752751481
-21.99231448531163,0.5171150708743777,-1.7107021700327334
19.743618063653347,0.8785174373220174,-3.7294608086065355
58.958760613313565,0.8550016340960301,-211.40745743287846
-70.68647207903443,0.1357790141107591,164.04201823927173
61.16211247991761,0.6852787927611613,40.38269302385726
0.6479183446744325,0.05159622613678805,-65.41798508720534
-159.084069610858,0.7743478129972625,45.274619967134875
26.72250844301265,0.43105324564345626,48.39062651673001
14.098676990564671,0.2690614313507411,18.47541182632243
189.33083084013492,0.7918428597453484,35.718194945118
122.41773106069176,0.21790177876834183,13.595781249588255
2.563261903086768,0.7331893592557467,-133.0715514113354
42.92144352090831,0.28077210689676,-263.92971488922535
-117.94074253857272,0.22235125829680003,55.53603040999454
136.40870162336836,0.5315202980379642,-9.030257774438084
22.364068033185227,0.5046929181852988,48.58011468732699
145.4877053402386,0.9713768426249831,-29.546381330252824
123.16094993893059,0.026954420109041144,-111.19697545926341
-231.2489848467338,0.38173904833855,7.061925746649246
-11.00959400616369,0.6320504048670801,-58.29808450314087
-88.06751810642707,0.2519673251120421,157.9599829684282
-109.69440243804307,0.6006336107731008,-180.94261640189447
-159.12381761754847,0.44434159505547244,-131.43672199342632
11.066320113245277,0.3943110251390891,-29.586476898521653
78.01887804089559,0.3074013612954416,169.42177127779908
192.2017610630634,0.18434786918437573,-7.517272034226168
5.083551930856177,0.33555698349922525,251.62537970008222
-2.569165372426639,0.6339828070434602,61.869854937087034
40.768433047949046,0.15451486287554583,-234.3497892678672
75.46724030084174,0.4043204140791151,89.20692565665075
118.57769896816788,0.6060844787835904,-25.309761709021274
-225.59925023610597,0.7331296585314347,104.90019979602319
135.44141624269685,0.931281209170242,146.84399791678769
10.697853361316453,0.09853423690120877,-8.955206489342453
37.84924404251587,0.08863410165117436,-84.50464893975226
164.23266136358504,0.4341012706586541,-4.494307614046005
-198.51617257492367,0.13756658952389744,-57.771789182786904
-172.44269433730977,0.3018364752889098,118.08181732003136
54.66766824616743,0.25871206661122503,86.68451082413505
90.87417729192694,0.7000136098158319,-147.59401751389612
-162.6659366055107,0.5162991260463751,-45.9361111081621
210.25664025849204,0.20238262633674808,-3.061280493957495
-27.633413048080218,0.37680357041400425,2.386294788568782
-130.06176362441678,0.9443875208364613,-20.90510143324125
-23.305854874329583,0.94140324848266,-82.63037590034456
-9.588849143754668,0.1589805840359948,164.09693202298098
-25.558707046163608,0.4762944167074231,47.33033150614844
-204.6170382245453,0.2661060011597419,72.93260327577119
-10.928772225082886,0.7026172006805508,167.97860714641894
53.90252313366912,0.1048791377247057,47.6193628343883
22.633633222581253,0.9735595088358332,-104.52102467877047
38.30919391990341,0.7834899757292937,-59.76876913425083
164.62658700629814,0.3580906651633503,-39.46721390259018
2.1426337283837418,0.468993193283624,80.59425323698926
-38.623907728227245,0.15627006322939663,91.01575707031756
69.83389007315405,0.7023119420740737,-155.8596348468844
136.17535184106643,0.8053632504762359,70.27704992255353
70.62774284526824,0.7125220748365283,-84.34039852918612
-24.35000187409647,0.8767435286802923,13.645458391152085
-21.630653071871965,0.16592656728323874,-111.64356635142587
-66.73216507217931,0.5006818984786973,206.25328528576068
-194.07448502739686,0.013070165352247476,-247.65310079315324
28.548348544422897,0.8783237632119252,84.47375847022215
-62.6064086311389,0.18470068927283823,87.44554430018054
7.696237286374245,0.020555441218169213,81.70368006431809
62.84152259115125,0.2961093882041288,-8.375811303727266
68.90478100464651,0.9108093557232319,18.697847814324962
27.82896330747413,0.23152010532334832,-2.954333418820806
-161.96049834685874,0.5889972026227347,93.87235982018422
290.412430530617,0.8341709590451678,-38.24822308963868
181.99904900543956,0.6713637592310397,-29.993387123670324
-1.51234997193104,0.0654325235550316,59.505846371701786
105.32764475665589,0.9363943121530341,12.60431552858175
-44.54294297653982,0.3443699955517159,-6.372472511088037
182.62677367604036,0.31345932757872996,203.10270325959405
-39.34348006443783,0.13339589397984708,104.55709344823174
27.902777151303574,0.5432670927730255,220.7690342932353
25.997175324988685,0.23562955277693187,251.53703467744992
-81.58669747368093,0.7405223963069736,-49.321781077966314
135.15360314360683,0.5370318156682781,69.74780932095919
52.72367374108331,0.7449028693002037,4.435316881439516
80.23484650930479,0.8759576913542054,44.96964723147947
24.45075805670268,0.5610397229328244,-96.2314501055577
-75.84795231694551,0.1572754236978734,48.62081875266332
-76.61334252010029,0.4237990919492872,-103.99127467298874
-90.1765382385492,0.9460238026761868,32.031240962839675
17.493782215233548,0.5549793505261162,-146.97892783855264
-54.29602729737445,0.18524509953027046,52.247326890029974
-31.451437055376775,0.46129700718756583,-190.98267975268445
-151.5502580604845,0.9889607694324387,111.06253115756675
-24.323005011705725,0.48136907825420605,-232.95246828049008
136.4124368568317,0.9865660561505912,-68.65633287145214
85.2554803619413,0.27151034809731855,-77.13645778265499
-208.12800442224676,0.5153930462433682,91.11161029989042
-150.98224778999037,0.5557578154376672,62.147544128145626
-71.24487985799541,0.6280221054222187,-67.41262997847443
-46.68644044977084,0.10062216340251517,-1.4494314448379564
-27.834782009888077,0.30272478887963106,12.949506677958459
-78.96910382054446,0.909957428961104,-107.1962305231543
29.576970029988537,0.4922860624936988,-15.683700759661049
54.2184634349408,0.12472757124052569,-68.38593574073867
87.52165273946744,0.34394490373119113,111.68487995479627
30.94132068979567,0.13268638720319614,-74.22739306258916
60.320858633726495,0.5340089556859282,-84.70648040910329
-16.613176154430427,0.14618182228294418,-5.571031360816911
71.32572613958597,0.6903516173740102,-17.721562083483526
218.68009547912445,0.34712936295073016,116.43808672246571
-96.80518700626655,0.7158431532472518,-76.8833279802838
10.397090040378178,0.2479709490313574,-24.729291739922296
132.02695892410418,0.8686995531530043,-70.14533699085075
4.730350050313049,0.3430445861997048,173.61156195396578
-47.803625458437374,0.9303456098101035,45.256896438935755
-112.980060728207,0.44500214050693165,-52.31692803864967
57.8265328467392,0.6772953196226967,131.67518971550837
118.270279006242,0.7891295723097824,48.87931542199645
145.62504309571432,0.9296170349774775,-187.53073147116152
-47.44928009148535,0.30543094270739524,-166.61953365773286
-33.328531711587914,0.200432468151018,-88.42345364874198
-96.63751595626704,0.22167789004907845,158.79584956822248
-98.8482405886166,0.565471604902485,45.52765861688016
2.781747693154226,0.6286226699154909,35.61501798487717
134.1296224121817,0.4954242677754229,4.907812471497037
-40.87043410789658,0.17556532629212496,-61.049826345753374
-116.80946645554052,0.73410873265781,-204.77496611969116
-155.26267518041283,0.2792512974759668,106.20935092528802
166.46982886760972,0.5089725195522004,131.06325926382817
144.75937613004336,0.8767179378636711,124.58510706371786
-67.86062866483033,0.8395564577267688,65.79402622117881
42.5479275823201,0.7129821235347998,229.78781932951597
95.14407597024599,0.7393554415645605,-148.6958496955268
-111.88295768282828,0.698404126231764,-126.19364197154532
40.245588742827145,0.7139909668225837,11.215126241345194
-74.71448687150935,0.933451724316889,-35.11024545835374
143.99285523808317,0.8293406858731711,-38.084904936404065
-9.741754147933584,0.8126581483391834,-8.750680639549966
-172.74237216226553,0.9580616535105785,-3.5708536435487943
-53.493211379953166,0.030269369510070088,-9.993842924900829
-147.51936476477044,0.7285357309731159,-21.997262748346984
-15.259121235859471,0.32059222355280015,-2.7824336114074084
212.7335179775738,0.04804085574717931,145.13683863688613
-43.06275349027927,0.5999264704871006,29.695510119619588
-98.42933653387345,0.43137943262568235,-128.63455610254718
-61.419470075625924,0.7344946880043828,-169.85359404753723
-34.87815317287393,0.0026775895142896466,-181.62267165694794
43.82795218824066,0.7870268587807622,12.508339867455268
-34.0938560752379,0.26052290394950484,-28.425690361494517
-48.519223494017595,0.6004287126884287,-25.259411777017593
-155.2954810758,0.34674584467406866,81.26196544600651
3.0292233998845974,0.9548707707424985,-138.43724191429794
-134.1733337340038,0.5660960357258349,140.1473331494859
-79.17526898756856,0.03805699245993022,52.43426854856333
100.32397645429808,0.72566240435398,59.834627790951345
-34.230238999002815,0.014205680981620006,-99.77547439835868
-38.590967595481054,0.25799336518964355,-66.21294293979523
86.49349115394378,0.39035723155480173,-56.64952489412389
-144.72107866343237,0.2186291584937572,-96.94147287718215
-34.00038160947181,0.7889245039463867,-244.27392758714484
16.206308060485348,0.24433906753270385,39.45503019906694
115.02380025160741,0.07313935218647971,13.582877153453147
-41.867109941441676,0.6008461227029266,52.720384510184324
-98.95750198014612,0.6399131038707345,-119.96550305435795
57.48047416692238,0.8884505781023763,76.87309672482641
146.46010586901298,0.40991423669598537,-83.88301384140502
-59.49880482144967,0.7871202440432653,114.35497024313443
-66.48103103693536,0.27670357049466887,24.372662342114705
102.75480383337037,0.7394798438183008,-110.27358179054416
37.50930270740045,0.9345040213765721,166.05329208005443
85.41271895306079,0.20355262527991058,238.08802971414926
-98.76906730478848,0.028277273301010597,-55.521292540693004
40.975982237226155,0.4695157759877341,173.3539290170653
-205.9986964717088,0.3394073109623631,52.85683620784707
29.93895495864425,0.34011881298879276,52.86165663815711
127.03492573363364,0.4638147966666333,-0.21987724049485471
-106.63587630973768,0.9424925690267211,24.26445753065359
-104.42454048535606,0.6754425967941214,6.048995275163051
-43.338643709534786,0.5006243222967682,-123.53980494396812
-48.9407801498675,0.8474281172295562,123.43954680858431
30.917164696820816,0.39818214870888335,-181.04763620288466
-68.32400397871598,0.4844906468180439,121.45382751806208
116.7839720397663,0.7783582006351487,142.27176732398033
-34.14492515632355,0.674397018288656,-69.792885036133
116.6343330656377,0.6395161033728302,72.01053575044054
-9.52386255204601,0.4467839819150631,88.00184634341677
-140.63490994132448,0.06518684922358742,13.4038992126083
294.05551673532597,0.38767764733026533,-159.57947627927766
77.04672703616885,0.781245985426331,-84.16188281033699
-114.79112909297535,0.7190938971045303,44.3220417501471
53.83414298879428,0.8736675086535655,-36.67519755174775
14.700942104537573,0.04812388954222102,54.70554128815154
91.42116969000924,0.19202718735825552,-97.77275204023252
142.20789715176588,0.8526349905298407,217.7064360780935
69.96706621201068,0.0103903389974761,-86.82136531894619
-42.6487018241865,0.4897087980409156,154.74482897124682
-60.58738700077318,0.5823799679548936,-68.45867678090654
-123.71994065862107,0.6956323016135201,-69.41278353987286
-125.29963474334811,0.1262984924778937,3.1513574521351035
-28.960556278550275,0.7019823273151596,-192.42826709257807
-47.645124842542984,0.7819521412540877,-194.0385956033721
-66.32738570534744,0.10599611940476483,61.16229860674742
-144.9114551270959,0.4352171376847149,151.33443269322905
-37.744192164161625,0.2271757813826465,137.38220949966026
84.87627078909867,0.5576157554840052,-136.07335632755257
-1.3594708216835922,0.9580990732056456,-172.2517472782614
-55.374575804949345,0.7832688764593457,89.78720223061447
-7.669705384445377,0.7638934304140625,18.757973939535
-68.26367261110231,0.3591936076551113,-57.22877634997822
-67.7040364889869,0.017803088425383584,180.81945445460596
-66.29692514068864,0.45115193633242734,-65.46060344012015
-37.99907219629873,0.7072810352078319,43.44220437688956
-217.49117030511113,0.5611837835623806,-44.43118842110111
-109.5322671657444,0.055683859661083024,-93.02585637526512
-92.18968006258878,0.06623891034538376,-120.41028639182028
-40.56341154342988,0.12402322887220218,-47.99600021266032
48.61130716832159,0.037104483588538684,-99.06057950137158
153.08125938533016,0.7910236703038165,75.75949553467262
-29.815644924513123,0.05289549512613956,35.1482809746331
-122.69521738852316,0.926369657516298,-89.33169916701692
49.29208505057989,0.1120719005013302,-117.78185292692956
74.56953975719202,0.8140848389259064,100.74571536093264
64.00340485566481,0.47861086196136826,42.64077778704805
-19.816477584702767,0.7865488389076762,36.068263360270315
-170.0961651501659,0.11338426640830235,75.46600131817223
-49.33500483521266,0.9177551299165534,-67.50728787352116
-34.07984627028814,0.08559114657768807,5.084543189929379
9.69854277474653,0.001585893412226369,145.40039449540453
88.53278534720047,0.5591580290999082,14.400335400084924
93.82979521863739,0.9971464801677427,98.656111684667
-11.196301945689978,0.5807293501778136,160.52492175986782
5.9478844395024275,0.9301344972386613,-73.2148001216133
-122.87211757451277,0.12731242014856037,-70.06549917244168
126.65867499100291,0.46849109624133023,53.011983486789674
82.16451397463246,0.6092247175025193,4.052207261557613
-133.18549089568612,0.4429820548912873,34.398769400400276
-110.69814207890718,0.19302763254456257,75.57734047644574
-65.46407026906101,0.6795040950905048,143.70918634488942
56.71660463163215,0.4234063057166173,-23.891358001887525
74.28156619094474,0.6928728240563446,136.90832030676165
-47.16988330647517,0.23819914285261368,32.00574643827056
15.761723245236126,0.8436220229997243,118.42152103641064
212.02666291396156,0.13441734381967685,19.63074920313189
-235.34900965051494,0.8880666705373639,-35.78791409103429
199.42171755976085,0.358900730413395,46.608229759218716
-184.84816218022075,0.33120304497594666,15.83030977504226
-85.03089571339444,0.41061089224322045,105.24655338406403
67.59172484727667,0.11760358963996365,-131.42690978129787
41.03244360255046,0.009447907018240498,47.18203448206227
70.27308732360873,0.06436301254092758,-7.133883077250601
-64.85539965065831,0.4675986689899895,-9.431823032742956
-33.576184837152226,0.09426011023756864,-140.1890219943635
-225.57657923869124,0.8218885660548464,-86.136234274602
-79.20710208395657,0.02669947240597248,200.56303891740615
151.65513242386137,0.002464443556079887,-2.5971277874087693
6.780461671817803,0.7439826647156419,5.121843153495904
30.2783090577136,0.8111706699027454,21.890627697415194
15.098788490055387,0.9805133693215361,129.8679168153213
-65.61539668268607,0.5543855112673366,-292.77304760511385
-227.27214103094596,0.9307161410781074,26.63065820507784
31.189014692336396,0.4282520727754502,-198.78407254262657
163.90470911953793,0.2465062504635761,-49.193166345501815
84.2386984399683,0.20578433233620663,54.30782771189316
92.91770584874054,0.7061501303498127,-159.39765199774027
-126.71111570242495,0.663803690207829,-90.75502689801073
-128.70083302178526,0.997685977282307,-68.3657836813274
-4.653426093389177,0.43363150901543823,-22.15209693086374
71.16922139417632,0.4949890009170853,5.856929621395462
76.21920437391786,0.31143729034575407,145.42136674795358
-16.760461427671828,0.9718372300319543,41.003611142924605
-79.2324483657398,0.7009071863363294,-6.842302195825583
219.4809570535911,0.6694871900994646,-132.5917028735987
131.02078372270307,0.9054497171216883,105.10179422833812
101.00577143069403,0.45440412533378205,-144.63059597200188
-50.00579886718385,0.8051012580177188,107.67912368365913
9.038897610282303,0.6536654373325258,-10.52426294918619
-176.673334983553,0.5834715355612586,-1.4837522883886813
-171.55589419478363,0.6156876577083338,86.36320581609259
157.6857211873747,0.08334733882202083,110.74010964291656
-50.25144345772474,0.8207140410270974,-44.07117206615545
74.44557592377957,0.8989751937182654,107.6803053327723
171.1994163357508,0.503734930495911,12.714988199423892
-77.08521362388464,0.6107259582039816,-90.15039769705648
19.4619895542368,0.5623695438202004,44.92907981462465
41.02838525979233,0.8724728929619764,-166.4760175340899
84.95868084615302,0.5730894417400433,-129.52134728849455
28.452112526622436,0.1731630288953554,-49.64251173879291
63.61337640297978,0.5545630602245435,171.3369525505614
-104.97566562801896,0.8216202765073911,-83.46795024937481
-70.49219115910475,0.6982482128360304,26.893621442603088
-66.62652112029377,0.5799143328968663,117.56086202125667
167.18453012301362,0.7857415036789388,23.89474961777217
120.21307007580691,0.39218637061062955,31.011526459647776
-181.19530923753874,0.6247777553846031,-115.25176110010023
33.36581541067362,0.37965077884266973,-64.75975422186035
-83.78233056805244,0.33224903816993323,-31.480980917788866
26.211783586347444,0.9959894544357827,10.677461043087558
-114.50452700216343,0.12538592140409344,-172.47154790610162
-101.77052626980428,0.18466274811748962,-47.219089701507095
-7.490854697619816,0.9528917305922886,64.46668008293811
-39.434083669037655,0.3837902277807017,216.7475874494318
-95.17415489657917,0.13732691523658924,-158.2372147836819
80.94053046738847,0.2526925054107968,-108.74553321957127
10.49653639190123,0.676586053110504,-30.541856290365978
77.5833981160401,0.867756049160027,22.394369608985595
28.99436162256137,0.4197155672549292,-309.5445639186968
126.4290970150537,0.9633413400648193,-167.26759942243064
-22.268775747148684,0.3905942962293747,-20.905808287095745
44.472104904876296,0.2695874795562081,47.43767490413519
-258.4022624177206,0.08594141778938591,28.060819371402
-46.9954981099396,0.29185895501984405,-110.12071726953327
75.10250550717062,0.49193746985745956,45.404013278483625
73.4083027148487,0.0353281167099172,47.908184955128604
-7.721915266261072,0.2902360848970562,54.49032828029862
-83.96562713220284,0.8862346035217192,90.32105230381458
33.969720409344006,0.9276287674899907,73.04966586790533
73.39916440449225,0.10342159405955487,39.66067746596375
-98.45720906104866,0.18918953458655619,-72.02506540106862
-166.68280169842532,0.7441374431315683,-36.43663131251408
-134.9643316976194,0.1175279085674441,-44.330082198450036
-42.378746653202995,0.666916211912367,42.3900737341568
-34.818832252829075,0.09536442081558605,113.53577756268618
-33.67054756912069,0.38818049317488057,-25.317682394058345
94.58493559656748,0.3993371792934547,43.69874262119936
48.57557633505566,0.6447797456374503,-70.26780581827651
-37.01591805500299,0.8718616521661884,217.33331855350397
32.914798786475835,0.7810167671049568,-15.690252780692179
17.895698501873728,0.6165507212880035,106.90964078302065
-37.15037385581162,0.5287619903890717,-148.24104164588508
165.4434102259713,0.5801276225127641,-17.23540730081593
-84.46640426458613,0.9084146195243386,-144.33319207104697
130.0766269166334,0.6515261620810398,-42.59359841532997
-288.83599395109417,0.515508631899633,69.4667608390041
21.637600707816766,0.5627868630849207,-161.39413138061914
46.45907440838186,0.29931714142010113,57.18624737486191
-114.3036943710812,0.744638963595861,-92.00367758338017
163.79102540722985,0.43708880908153525,40.93400871547017
25.445397317236534,0.656077520815419,65.66014022094289
-76.24787672185191,0.37842017200218425,9.47103474041524
-79.14859919352195,0.4848388012837065,243.15755702401972
-86.77924993061288,0.798787652790264,-123.09750287924628
115.68251782470365,0.5703326644013926,98.9582699268738
-121.27914545491375,0.8693375167708909,-56.6675761256988
49.3434208217899,0.4564821345713662,47.03600365377506
-13.82377106550973,0.2729749370525614,-48.49828844353478
-15.57401592478065,0.13669596322282307,47.61941926676114
-88.67418458308924,0.8267070095807469,-42.084662946057136
47.47494282451443,0.3143620649887008,-94.5250851775443
92.76108939356077,0.1940138315076292,24.053481927772047
238.55674523686133,0.6139297731119061,77.14928166802359
25.68239160815442,0.3237582459104522,-18.101375470251217
-135.28714771672406,0.4345857572170836,-97.93196992645007
-85.57919747744621,0.5734702543382385,60.90646668614179
-2.187226043056831,0.46089688875416757,-40.383486008683306
160.14844746928998,0.5529373824849037,143.52646374643433
42.31139948486998,0.5261077618898885,-211.14567336393603
139.65073149293207,0.9960704357581946,59.085711112725114
-86.97436363950922,0.6927222499391745,-57.35981675416916
13.288505917080496,0.5816960849621174,223.1642177986145
-71.90216822345732,0.7864413080836693,-2.0183541367445446
27.61608242502539,0.03191744774536709,-52.07982695169451
7.445103371329751,0.39371152760280026,17.375966218967598
-109.80392414635605,0.7784821310091985,80.91032151050122
69.32927046532672,0.38920492002244245,5.524078978137139
-6.4570899269596165,0.37594619835465704,-211.89631004858364
7.509055713100506,0.27658724786077304,-108.94626983057584
108.80396691748808,0.9096612135861936,-2.4103078799328155
-17.163581356304768,0.923355062587403,55.50769701581571
121.78652503223032,0.11639658597015146,32.04980605893225
112.64200002788272,0.29491844595907657,-55.82706731809809
39.47791379181243,0.6662011495715338,79.74724238227961
103.07178342794413,0.9706140815092538,-12.38501453505417
162.37050607352077,0.6084229711641367,-5.377177914476316
30.56957106552382,0.18750190953193424,43.837778050883635
-75.26908170678055,0.5018380577712832,103.96566967848133
-144.7543839012892,0.042232760132474234,145.36539845842
-2.2010791446199267,0.2498432074081478,-165.12538783446266
-88.43699602281168,0.07281306399291865,66.3794260925871
63.84635002050468,0.9869795803830615,-28.601271726467694
-112.75392373260385,0.2875303181407397,141.81123746905365
34.956837563476576,0.6316785257474089,32.24677598153672
33.04468740190751,0.07628446721833382,150.05262529958904
185.1996387453688,0.17251955751145998,104.15022270168673
258.09293654750445,0.3468719569705009,70.67624833417102
54.81885541465261,0.8105910400419706,-150.588171887968
-88.50428654540057,0.9344635979733666,21.0421585650734
51.23526352228285,0.6106980798405389,22.8418845439154
135.6274556493601,0.4089537089326988,26.619071240132193
175.18536715859466,0.1570194066966779,-45.19717854830955
-71.3524535691942,0.17153507775265653,-34.80712144994276
160.48877700610782,0.06042807253129079,98.71725906042022
134.52202749199944,0.3514362756717063,154.77145257034087
-49.371153914744106,0.355044755720475,48.54620370057649
72.65814582106168,0.6742395102638064,-69.77567106782239
-98.38022729881749,0.8738320044690877,26.188847919304504
157.1756736697822,0.7512335748084012,-105.57042727894259
22.658744796265214,0.7789456641374953,20.444399442072463
43.325127930728144,0.9553610099198513,-95.66099029781363
-9.926742044868318,0.9860414308049625,-35.15069979099819
-20.515125635592398,0.9939187578756196,-102.63772948062497
45.87852053983397,0.6056576329382607,-58.59663923023648
126.79975277711048,0.660178569934538,135.9523339409793
101.57415566772485,0.5569391750592957,115.78571909028477
164.1843302491631,0.43528460507657907,-23.297964143730333
27.424998208325324,0.5657256490087003,-100.92785045085273
81.44444309247265,0.002365603678460393,-36.725325084048805
-172.8787854988685,0.2075722300199233,12.815698144454817
41.56637159582438,0.7694823370361881,-140.3980346875803
-56.95475737599652,0.1741572240044984,91.97502583749156
16.335467077611444,0.4242634075092184,198.53587132025635
-55.5029816888019,0.5975001800262587,-22.049941322244557
32.44406985774583,0.8085541797818742,13.040132646525796
64.53684589583533,0.3165729590225247,-82.03599548437901
-5.4946326053907315,0.16463244497694574,18.324795384303545
102.32933783366826,0.43011845910018587,2.7441504094899924
-149.4909404274953,0.92841156011544,118.73331490912366
78.62165647924051,0.7867900493654051,-5.986777143494761
-120.51611239843764,0.07950248724107478,32.883883654591315
134.95414495328188,0.9449447780889383,97.4897997317912
169.07415547249164,0.9679508841404559,83.96879284211735
53.29648966704292,0.44299265524927856,100.69622942533039
58.22941100511277,0.6883691530094825,36.71885317228048
29.4942038744769,0.44163695442151607,-119.26490393279315
-135.31604808438468,0.6139164806704086,142.5250051914081
38.12600160163772,0.551331312913211,-81.58617723536786
48.12277974933245,0.22747781976488057,1.2225511983429047
-114.8666717558493,0.7124432696885594,28.014322582495097
-61.40048031340093,0.6596832104811469,-35.6118426683738
-46.60818894849365,0.9087033951671343,-22.409947831018133
-171.03035738622995,0.6857393980600932,28.38080818405549
-7.419269486363045,0.28863974127392356,121.64818904846221
40.63540249258839,0.35566943929449524,7.737572842632788
8.913353649610608,0.5023419586369898,-188.9207107203863
337.40602818646875,0.827904877208438,156.90131906469026
-65.15454222349429,0.6466760637517087,-4.023266781119779
110.34641263048937,0.09558924306121563,55.35760024539373
59.64259250531349,0.23339650797115197,10.538164379476553
60.04428331034194,0.7579621176879521,15.047066162913167
-182.4563261620921,0.7530525960677431,-96.23056035594276
3.784662131933044,0.8911068572488338,16.035633648023328
83.65375486451562,0.4897732515245038,-88.48633597676283
-67.92128694045199,0.4278383202045032,-185.48716791661838
72.01276148959246,0.22888349769595906,-146.92955608816206
-137.11810916744932,0.08280757149102813,191.10600010903792
-48.53175190296792,0.2377287658925905,-35.84759541919479
-12.573386029949225,0.21694142480692535,-84.84511652700873
-50.3239653372625,0.8894152950068283,-160.9168869937696
-81.49918540695286,0.8059599597773892,46.2598530911088
106.14099714011411,0.45166969760976683,93.45329855210409
101.00004620791643,0.5800212859222933,-9.947255149828049
-69.77451305921696,0.018407774561325585,40.21083522185201
132.7901852152039,0.09674525352681618,86.34973452798987
87.44353047881391,0.14300263638148636,1.2138306515838277
-49.37836540204822,0.4052991802083814,10.155027739752088
11.747080975308473,0.3439158092102803,182.62596708123152
-70.68048927499191,0.13128789956083176,38.738411982832034
-28.49326711061635,0.06401342653867648,-14.386036942247568
69.64891119703884,0.11475123787975738,-78.79479335104469
159.48201653349255,0.544640975803452,-53.3470272335077
-8.311595760163108,0.7882503566643753,-57.41593658326287
79.94702671323208,0.848064068182245,121.07386497905553
-27.604615146501672,0.9864205896711442,70.63166908662842
78.98497681237579,0.11681449700185309,-96.48517505562606
-86.3740273318086,0.5756705451707933,-58.145053738752125
89.64043120528213,0.9086046912857266,-64.48945302633253
-230.48969772163485,0.8588481156338545,-107.33081558160784
-40.524903291872555,0.967954437780544,-61.62080483182947
50.751458113683626,0.7982601586996273,54.27419499549724
77.40393928313016,0.17226272384963814,196.65318247706477
140.61715238209837,0.84172958409272,-218.1138294430403
108.69768617021818,0.7675733881081481,263.5903038798196
50.830073862466726,0.4005708855212817,63.48168237739438
184.6233544820271,0.6103827456056139,-40.146191013566465
-39.35170534624564,0.08478252799382024,-37.20579289093512
-126.23393909170197,0.37767420202012214,-11.0032027647456
10.289091114987846,0.7753251025374877,-106.36833073695946
193.10539247879996,0.38190263700224625,-27.842575879590083
-176.47750274773762,0.33216088061687477,-2.9154526040804805
63.927011374182484,0.5852602865832373,23.144273058127784
-162.26403547026337,0.5598344531106495,-24.512626213098013
59.312491176327754,0.2092104714113069,-24.47449404457377
-121.14688358624792,0.1199018837888004,53.1454504792412
-16.975508591914387,0.2500806542663625,-39.81090292222697
178.238888716958,0.30886593696047204,-184.89713757945924
-89.73343757552705,0.9367307604698565,-46.92634804964103
51.5595030848728,0.9857340218305527,-72.46513960891811
-32.57258884819096,0.6881859516883607,62.82636324060018
-31.52678948599216,0.8448576540497079,-50.95032878236988
-145.98358047550175,0.23667566840894338,-63.89715983188587
8.38449797576403,0.04522729219160582,-88.4226924085607
-67.23659847354067,0.04703782102222054,76.32849750776299
-79.5662073016821,0.744082049435649,-2.7771173967847904
47.21418306483234,0.7979917476226593,-65.82340101407566
34.74233465907794,0.4378750217077383,-19.369627712864855
59.32345202134998,0.47340378135558303,112.99506985612355
8.34154088970064,0.12629241850493755,-81.54350454118966
32.22680097982856,0.936451251198587,-112.40085896566414
-45.95265330782599,0.21573125553535888,-35.864581387497964
-134.86689434902095,0.8858840084582323,-28.75313623286268
-181.39256457126527,0.9491783325878582,42.74562924489164
281.5021414563404,0.12065068966249615,190.46058359834117
173.39286879284776,0.8585426671144616,107.94493066821695
31.38573179645808,0.034331650745341946,-77.77025513588352
-74.7998642790794,0.6815685022798864,17.407399288498006
-76.09345436508237,0.9336918162772679,-54.86017134961049
126.04769777303268,0.3257152106821689,15.81752579961532
32.680508428385096,0.2554794430408739,42.917804413025166
-94.77426190912206,0.5569702402271183,1.9971189553793485
76.74150224924381,0.7308582232614048,-140.4925483284558
9.974410274375261,0.00014070529359344608,-109.00016873716842
-22.631760611089025,0.4702412979867896,5.6157592207824445
144.35323415330353,0.3001992353334415,27.66565371340951
-49.657126806093856,0.8724170854279032,-92.58285109029578
-53.07245531779391,0.6651942365252261,-19.326968356776757
162.22172087091414,0.5798016784153672,-340.8247633922375
0.5190704031779805,0.8433208589544412,-54.7759247779502
12.086047375921396,0.6753489794626684,-48.2447140223293
71.83433704617002,0.33126296134504574,-119.23530190494323
-85.97480657188213,0.9296119424930392,-172.04664101066928
84.7159655498013,0.669739052845035,83.47281423864729
-108.52308479496145,0.9100833639473371,105.69156525736511
-9.909498553278773,0.049910697871565435,-66.24300845934526
93.0509741279404,0.8614154910734406,48.4709568914183
-154.55517747181108,0.4973658403348602,-66.64875321808873
-145.13054429432643,0.7165256531919509,45.22142366553651
-38.09654888908614,0.13220908044213553,95.76095891362138
112.99878490849365,0.189848178698661,-28.151055053008594
1.3838452381989041,0.3294654397223601,-5.334389697250271
2.880403591309783,0.14462778860751213,20.644942968179922
24.889882800529094,0.48609218939432863,-79.98564542003272
-45.31108724957247,0.4193026441217953,37.993427444653655
223.83396841861978,0.5064936364945022,112.97131868447651
97.16138200007308,0.524319569107863,30.26136221763409
2.0653371558206692,0.8034358532499243,0.178363934318364
101.24866123524666,0.16342162404816418,51.39864218089687
-155.53216694700103,0.31231414869975915,-22.538973498627772
152.8063395303145,0.14560050590732698,280.3691182639199
-0.4285350492348751,0.3068268636864927,67.95487540682495
84.57906277384139,0.7714391916267463,92.48518760086932
-49.01655075617919,0.8721096234715807,-116.69834156141894
0.5077140361153197,0.15157053113654795,7.120350865675658
38.011988923558945,0.07178297312569337,139.08188525689152
44.13015652330907,0.4974766328369872,90.41804496268287
-67.38650216258023,0.6292167613986261,50.67041777801728
-77.32800951973104,0.466801203992398,47.532001980908746
-37.44177747545832,0.5368765307200167,59.30763035351742
-25.185075990610674,0.5715795022986915,-23.214762282053268
47.7890916924183,0.9932688271260846,86.40485274306289
-229.50773812713084,0.45529421624256505,-11.867267901616541
25.78942762908411,0.4182628117198167,16.479532389574416
160.48701336722831,0.9202304301265098,56.94250871615299
-19.373990611297252,0.8963675079877594,-66.45691233424441
-173.68383680179124,0.12448910773027866,-0.25182156157541535
40.56262961845734,0.029973311568793348,65.30713689804936
116.05403712820646,0.5939861572367171,54.62793048158884
-23.898997760674128,0.38835368033177275,-177.051566368319
49.32546584096353,0.31706495697894743,-73.27445332232631
5.847643795347624,0.04526387641867191,8.615822323283204
-139.51435025352575,0.3176614940257999,7.8060911076320085
21.612037510381057,0.8866787877640555,38.55112246072087
277.34976185741306,0.9073993531542848,101.12727151889753
-106.94972557013817,0.13473993311630839,30.787692765813055
-15.361717033252747,0.3983118590966582,-22.296750627934443
-128.23300278324072,0.7643920348272023,-34.50929550560423
-83.51264168721288,0.6833141797628712,-181.76986185172953
-73.7254055924376,0.8015088640252369,-155.9295121226887
11.741281662579338,0.5220642081068668,46.43096245330388
2.2158000527387065,0.38390423472852864,27.631430509331086
82.87881600223423,0.3597766143985056,1.8626078760547
82.71713327925066,0.7825659029414446,-36.80818799991496
8.173063295403564,0.19927872478058273,89.14213071458344
-17.8236044476474,0.6306099055257812,139.04135481486034
-142.41110482955185,0.07367468442008651,148.85032153461552
-17.47805223954203,0.8734171970380856,-106.94407291118995
32.3565586771888,0.6943454751815458,63.03656747599974
64.82827383420332,0.5723857943197281,23.38155734840414
-88.67691629161297,0.9481618666120389,30.31187743974747
6.943519555888853,0.14566162472763866,-25.0774893889898
236.23978292322838,0.7656949069136906,-66.7137234473334
5.524912503587685,0.154368576989396,17.96426296697751
-80.70188676669731,0.13318311134681027,-69.41833315794642
115.1664720779831,0.1779889283172087,-6.980047045674387
4.433814168989992,0.6018689601989095,149.75265495718955
-5.4286032888246805,0.42821835934689734,-60.68018345099399
-146.03364418090254,0.81235554605022,167.5976410479464
-6.536885987583227,0.3404351898594483,-112.09738513138967
158.22471989119234,0.9926784831194768,171.41733047132774
-26.769495473201278,0.23707737044408672,-203.0410725866656
-1.9085446648020046,0.7188604417019685,56.73273300042771
-66.37950245524962,0.7638194973967698,39.6058642292212
-103.92976221238675,0.7491333213204937,19.24192880162442
1.1359787130585448,0.9813402328629928,-38.80514596879886
81.90099609541403,0.5531791799624353,35.95511901963621
-108.8929044156375,0.031944931885114936,-52.7753558431122
-118.0380664210818,0.796273382130109,31.36516777759316
-14.620637321719835,0.3545678418745343,116.39819937694824
-162.7064564836108,0.7530306489938521,-154.78977469573348
-26.125885402052194,0.531107698459598,5.09587185052023
-146.9365229616291,0.8868601217720476,-85.41832244698794
-97.04112429375117,0.6558574418584115,-12.30726848264783
5.059434356806434,0.641288576956078,-38.47794264059606
61.8610743672769,0.21976886972367515,-67.40105522283531
114.71946319640975,0.8531761457106612,16.79956755027322
89.28974946017819,0.2536730247484683,-84.21513393375267
52.394572163413024,0.22842159577629328,-136.0026487184361
-76.0004872077776,0.11756821919427751,-38.44619865591201
66.05607799872234,0.6703553099616155,-177.93525015517673
-104.88000240061123,0.4543240730126633,-132.72420067128905
-47.224878705779666,0.6717258453909185,137.10803831658114
-45.17978550527884,0.7067958063794374,178.6656719481024
-40.41699346416145,0.9599426672357732,27.131078176973894
-21.008218072167857,0.7874931161401213,-84.04403404536602
167.9909054939492,0.3719734287948464,54.014512625919885
54.51822552469976,0.5049103458158989,-204.1961941477026
30.92132401043759,0.8193120168643092,-154.682509034312
28.35670372425528,0.09318683743255762,23.951572682881565
-157.4401406773812,0.6554571566538758,-139.4008445734257
128.1232021884704,0.9034645529939472,48.22833382092302
43.51429983053537,0.9432684076454056,44.35753596245031
39.89986031084671,0.22458121483406057,-26.994475723163358
7.94434411735701,0.9227347535214001,168.93624785293198
-2.5986790737495173,0.8327719051910683,-19.633808084027624
47.88231729814487,0.5825658354965595,-19.745241643685883
-61.528676092522424,0.6689889826658779,84.5651985784311
59.67659063184579,0.2917941503236695,1.7265610159246967
-105.1922953526055,0.6351215142820128,67.62119815721633
-43.22646834422997,0.1362339253521372,95.69554135440723
57.055470900350116,0.9714622663113837,-4.9198912785479765
-72.92747808899583,0.6198604656472062,-48.968115205524796
-46.537793749407626,0.4572925575539628,-107.40861839278011
28.243829851280132,0.3326231789879607,100.8045837384278
50.169711040119616,0.5572460911736024,170.87161752955703
72.80957437265164,0.2849036924453141,15.938213910586152
88.18428449589358,0.8478914944490406,96.29464662130081
118.74073646289564,0.8821231578868818,6.000004746133922
-161.54003630249875,0.4291283403897067,26.826094117895384
153.51214389856588,0.8115422550750601,121.08828874102554
-4.07950783102499,0.30277892087933256,-120.84455654655495
88.59633968633645,0.180637237677035,87.61936789474106
-8.645084638175476,0.4491194228826141,-21.031448612239917
130.0969527127392,0.907426581231877,92.9810363437442
-114.1698181456073,0.4847684335605348,99.97461914188693
80.93461769163923,0.16206761266839043,-73.43342167707863
-5.825170765008174,0.6579029890854103,-204.66888604632797
270.9321343946788,0.8340844460588964,-141.17040737495415
-7.658703848955048,0.016892522244271402,-117.48774298186773
44.44219154132657,0.2215115506658354,-51.26149572133735
94.91436741531867,0.46597628185081474,71.95798709856493
88.36467908532703,0.38985103165941015,-47.133155502807085
-21.360510950215595,0.11535173341237737,-84.47260647058114
-13.207546469305854,0.4933723873415474,119.039500029297
69.79771589571344,0.8606163138302636,-175.85039234981488
-79.16910620482605,0.5045090043921752,15.324033719102065
90.15661811694133,0.31771083723537474,-73.65631213084573
62.19474331095692,0.8622575044948088,78.91347072688217
-11.265279571310602,0.9968970773843826,115.14206302848946
-67.46586575083057,0.3530762046807966,-51.492596518428215
218.59382573250042,0.08753325561554082,4.2081897503396295
128.12634882111738,0.5588921827893213,29.781651476102077
-3.5977140200642124,0.5853008116547712,-74.4504123124624
-164.32608857963135,0.6370653931432052,-27.76104729259723
66.5812693485119,0.33100454091437426,-70.19933380675857
284.42069311794796,0.16808513497733757,9.875147209305746
111.19311189042868,0.8259147501082346,-95.80629579325775
-47.98409596565701,0.07034816667049004,118.58369723432381
93.80151314051338,0.505772043673709,46.6057291422721
-133.47811156077876,0.20196810314108093,-9.16133780242581
219.7033517353459,0.4400106926390114,86.76840202468237
-20.54662548945328,0.28738547494080746,132.3947398868793
17.141736066633495,0.581816874662593,28.91191095354218
60.033597619646514,0.13251669870168492,186.48374683930857
100.65134249211991,0.4515791638948382,-148.50972376481167
50.00944811049376,0.708303301509473,-51.29008510439623
6.39375694732823,0.9476822357258547,74.72839062775189
-27.706144217558897,0.6631242834118145,-11.801572285212567
-30.788225753406874,0.10586437417427652,-21.378340468491803
28.51706497599481,0.8403602902607503,35.98684970848088
23.29008188673064,0.5126161562900851,121.90905904990115
-49.94677529122071,0.2262493525337549,7.618846660384122
1.0649933911168392,0.08068000576570566,-16.72957779790389
104.03667412734325,0.7563176795143213,109.273763305424
-145.09533711446278,0.3544572700870564,108.74449589159968
-110.35224307341468,0.3944257525929785,23.49431995272417
9.01426672390904,0.16899968165005808,106.75879371434871
-48.9840130565429,0.4257637538390304,43.31817525845161
-57.37303753566676,0.0058847292275679974,116.2374977799465
82.15855257884597,0.6332235222136373,-24.298038523797942
-120.67148041241424,0.5945702130024406,19.513115495284143
-87.75969901059823,0.12007218957033139,24.996256167842507
-171.86135353831776,0.5254030331486805,68.6805908694147
58.65892349811198,0.5209374798473727,-42.88477762869389
157.09918511153097,0.9300189761191885,-140.57659845859558
139.46754251221506,0.6273651442053201,21.225980189388476
-63.36495530314228,0.896894646049126,-93.80074259270556
4.986347065511896,0.927181224542179,101.68134523505505
-132.68340120107288,0.15257629899586989,-6.8458650491061075
125.20935179677765,0.9005553934277087,-13.398307757658012
2.922912225270951,0.1414796302275303,-112.15487363233545
35.8795198109253,0.48348584962633645,2.5802438251490694
-46.749881518532845,0.09590216283052366,116.64848705340754
184.03161754179925,0.7476134202619757,111.86566369328222
80.27697649733429,0.3614389581675084,-156.93815038674913
31.84715123357306,0.44170356328191007,168.71269278112246
-202.18820710824085,0.9136872773055758,11.077791799953506
-81.82026466655213,0.7863068700008491,-81.97194447412157
-111.58425530649967,0.8920776435685186,43.01963197108388
44.3838738737706,0.6262816276728786,94.15560162285144
-131.74604659855,0.6684842717180361,-42.52996047292928
-35.20715624698673,0.2386193893373616,-249.72713135082506
-48.38912695217749,0.48354402417220377,-110.86065078813097
72.1371662867957,0.4887702891593386,99.90742956962335
102.85396057172494,0.40705548223461774,1.9080437449791285
-32.94413687919376,0.5069474718877515,-28.666234405131696
182.31095081218882,0.12531771872514164,75.76664842573297
-112.54488110356817,0.4473458973188028,-67.89814243479921
82.5237387543807,0.09388617990906645,125.48283753891366
101.13087977918663,0.6699930988301223,113.2006058618698
-216.6361463867141,0.10721001342312209,-20.004734361320757
72.40326648860949,0.1553306227022483,-102.14157576654708
-61.067931225094526,0.18382972139561748,-45.36342592187604
109.52105764442712,0.808128329127768,-74.88478572355672
-108.17702364047285,0.14579986516108956,113.70708174142304
-19.56165975877996,0.13466621305910054,-179.78258065901065
177.09231943086914,0.8007480321667235,39.868429518066065
-130.880186412161,0.7199733826119422,148.7672636139638
40.85419867490401,0.15617252784645141,-11.847747809968025
8.21537989510074,0.894436723576952,146.42061471635304
-34.591693461162606,0.4956526733220501,6.950200346432201
-37.63006822520099,0.474608339056256,22.188460531460883
-94.72168848348531,0.9389487357600358,124.81815324317431
-18.806532254240008,0.4819469456682113,158.96248790938142
120.6151624791085,0.6469772635463845,21.66724627118466
20.247507915704507,0.12056352355088695,-47.14602173171544
-125.95307389805556,0.9638317280573779,30.53085882088379
-60.39368822412355,0.5347456533067607,134.5045474195639
-260.88935713561716,0.36612987044801026,94.96516478731192
-319.65259637945655,0.42260891627368613,-51.53989756691172
-105.01276737057496,0.19146695442008144,47.48193612700749
-21.567368570400024,0.5725295561835018,-77.27406694784386
-139.2800553340879,0.5435827994955308,20.186354465911677
-109.61992498100595,0.9829938776885222,-64.98005521590956
-160.72147664754385,0.6488983902820218,-61.200996482537974
-6.1114617631521595,0.8603328248555064,-44.78881906147323
68.643064468851,0.6152094437502301,6.072822254209971
40.79908977408901,0.7443186456709652,-9.195537795144054
29.035573540662103,0.4431007283162324,-39.37577737601585
36.0872783072942,0.628734695364942,-143.13625767026969
78.27331427861357,0.4082924164379982,-99.46745889400471
-1.5889791357164427,0.7124847210752105,125.45438738216473
78.90166330505696,0.4936046659459914,-32.987656736567025
164.76035326453314,0.05415141348801278,-154.32360428860437
-101.44348183194025,0.6659000687824158,-25.36757395164132
-185.02582702308715,0.7420914974831281,144.78377393287082
123.31659488644735,0.7548767188277992,42.20503818562567
-68.03636603796384,0.9385036440600915,85.08702839051323
22.228588000372017,0.3192302307748801,-80.03668753165867
-23.201517095743128,0.649408317740484,61.79486808306258
74.06777461488878,0.8158205667996126,-2.235198787652444
14.423275664201876,0.902610556400443,38.674854971122194
-96.90283563576052,0.8595186458105274,-59.07824530771803
16.686825071271734,0.42451198099994303,-32.92177509423725
21.940048963021116,0.20163109738082186,0.5870562718729483
23.734956790067255,0.4294808419066011,-22.517504336618362
122.3022206954847,0.6501492924404534,82.14048157001609
-16.667936735906665,0.9733287510179319,43.97298158641976
1.231784117218725,0.14975654142238226,118.49664796543378
25.289513470154816,0.5106338497357726,-117.98674149629657
8.349773172749822,0.14738398850909074,-126.67399283222964
22.74844720250092,0.7747741483920109,-173.13543036615528
-196.7964390671986,0.681527247406473,80.50637896662617
47.57784012914441,0.6700667629454652,226.4518151313139
-52.15991113643148,0.9055068758577888,-186.62988869608577
153.19778254975148,0.34284423157380783,-26.276866325340624
115.92618618373074,0.5188501193122157,113.4224839547101
-83.173825355597,0.9135673310498217,-170.85380069658402
10.199879191743383,0.28592340724651955,78.39159920283674
33.90170762870737,0.37802981091776366,41.88098797964973
-107.8334081905631,0.04514121480494304,-47.70268067477956
-148.8806106894045,0.8315428557164056,152.0330854974538
-10.999856763303265,0.33614347149850854,-37.09912325693486
33.80453854682441,0.3038301756473939,28.588122084511646
-158.55748938958757,0.6242750693038788,-114.72359166379714
-50.140480889173546,0.7840833871289856,42.448298736820725
45.60999595206664,0.03072586872547456,-160.19155699002613
-127.45993122871427,0.36660270666868255,-36.24499766459974
-270.90572142203587,0.1134493082830238,91.88444647890354
-34.89867096356963,0.8839635858266954,24.56552691552257
16.133311286546274,0.8892380125305244,147.83031617031338
-24.941407765578443,0.9779845132212971,85.45703103468841
-88.066274305477,0.07514383704035221,-173.81237600143905
-54.050685428278044,0.7111509981995936,-52.67095377274087
22.56733223289504,0.8995338432654427,13.461590761355849
50.08280319942092,0.6220676001103518,-43.105309553928684
40.991254427552164,0.3929033907212548,-151.12904234984214
2.9691029925807464,0.001976258893006344,-48.28502697566738
-42.658998819607845,0.5248779468991245,-120.13333764143776
29.555118338104,0.6461087799689655,-120.73310234666785
-25.995318018392155,0.5398379538823648,62.06581662170342
12.839074805717335,0.9676062978712997,-31.712085300523952
-131.15787843138753,0.9620916521616896,-31.241811615977465
-35.6411252541421,0.697192411916586,-80.50041354491681
46.87158678709382,0.10678370662681069,38.344056187972406
-159.11806135299594,0.5724934688564758,172.88484499197975
99.9470740862093,0.7331881907687812,-0.2975489377722696
-1.709806652528516,0.4951382638988042,-33.40717246459456
