-24.387905114409726,0.25721571540364296,-8.857198734812123
56.70773713107603,0.1393275106490055,84.93434167205126
-71.72958787460419,0.849728829819022,111.13142324664757
-91.15923589976565,0.14765179718995514,-68.0343311014317
50.90576896203242,0.007138378610514362,-40.621370753656564
-131.69457640370646,0.7223926574440258,17.84856606686623
-75.42744473305389,0.5559029317916273,-49.70411800692803
-94.26526692575416,0.6035651314772569,-169.33562040218516
-18.528698826715228,0.5051131613196148,70.29100752773284
123.3995354557003,0.7479866177419627,-171.3206598872066
25.039685851531136,0.9801930148778739,-17.880151504140677
-87.11138227670614,0.5153146038485725,-63.38332751375414
-77.10278088819963,0.09587578091366178,16.834909698244264
135.28654260308468,0.3447655149209874,-32.35438623229746
70.04521419453656,0.5588110449510703,-202.47753373776632
-10.837371586071551,0.7405638415474325,-160.15812250724457
-93.94707495150051,0.3579716594953638,-103.2753209119201
-4.698351938603685,0.4658000244298176,-122.08544408706328
-52.89924107888774,0.8587048374419796,-1.4577049892992744
-166.00672900513894,0.7273835945688736,90.73830017586666
-55.624220415409056,0.8221610877313252,16.844109594228257
122.82724970791091,0.7513784691722782,-59.28969355582553
-6.472184930765719,0.045401614819200464,135.70403370542303
-58.08598725664241,0.6031920395969208,-51.2194592483757
-129.6610141430231,0.07947242909925467,114.9687617998838
-197.1921374972377,0.32553972974554013,95.684307339236
-68.87239738389749,0.04899557319576875,-25.803302711470767
30.07646697348467,0.16424601698099217,11.96579128816227
-150.21224846545064,0.7771996372975924,100.63010419902156
135.31908930163647,0.019646050002189774,4.524090274134702
140.82555661771713,0.14987266683428235,-27.239412239577078
206.05368840204915,0.19360383208797172,73.27830564436087
-119.23460366064171,0.7945635952023792,-283.10236209184
244.8866923663221,0.6383165812834384,35.610656803733235
25.37462484126758,0.12693118376066315,52.482468029147135
129.74716427023802,0.4972741603629732,78.32542537657562
-16.388429737523623,0.12510143949804253,16.848434392963785
-1.5033869296548574,0.017914523670261917,-55.597071868118206
25.009454233321428,0.6249772282128104,-180.1924896817906
96.33263192379623,0.27312436890240466,-37.23249882096461
103.11235335098259,0.8318390884833348,-72.31810542362737
87.43210634303452,0.3378210653781897,138.7676236815907
52.90729753121444,0.604104130165932,-121.14912045137618
-91.27586948331249,0.20943976501410533,94.16105031605608
-86.231360712221,0.6988542075167004,-72.62184471581645
194.2742104820003,0.14332283858700234,127.23115849465508
-61.581850905327386,0.37917747517176026,192.88145226149155
-65.22237767591739,0.698776484390299,73.15077120711958
-40.41420220333887,0.8358069232025748,-8.645762318072316
-79.91941243455919,0.20995465953434012,-17.235835230663575
-23.14850848944248,0.09574800497533031,56.72279019539217
161.57158786764165,0.6046515391265224,226.65404317995242
55.37189724541379,0.20980808393173545,-123.29112808224664
58.544546752433114,0.5881520866627148,-68.27467443774499
-34.17139322875607,0.6535927747784614,153.3779460979646
45.06778544508772,0.5697549376572775,-239.25198915010046
-193.69095573785617,0.647323089459586,131.22405658885228
177.06591127801929,0.08215206912745265,57.89537369985284
-101.38617810881595,0.7142926630883781,-3.11150555841015
-35.00621471189101,0.43658550558896725,-51.678707476220175
126.55458726883384,0.3427436328655502,-110.58111819235452
74.12566942568452,0.7215134906513269,213.98523511898392
40.39352673894368,0.5581625794277284,34.70610945499293
63.294248259054896,0.5184007105381231,175.87434000487391
90.77423611615242,0.07838746888677883,166.22858808802005
-14.892097128033003,0.20852510006680758,-49.243023087092475
149.9098520465536,0.7751332686329881,-85.22412803341234
48.11849888798121,0.6929332083281701,-54.77912661561505
-67.97846668266858,0.3730105274224823,67.26558667943601
86.08723628235704,0.799774958793285,-10.339873035483386
-100.3221309201646,0.8299365707956083,-54.75174780668366
57.06811750777443,0.8862765360218131,-86.63983949217997
87.51329546203812,0.8127825894965698,-39.30975189496736
-116.42640808639429,0.6201644207557538,69.18543355673745
-3.343371353462742,0.4228575430212598,147.6299418604267
43.6020540744184,0.438509133235115,7.134906621908437
46.807361346218016,0.41120151102020863,-146.09585422027757
-206.1512119162759,0.06669408893721529,-0.5458230052874257
-103.4180956352986,0.9691817324259873,-19.02521909445672
-192.95919005097326,0.1430888516729849,-24.51520464405672
-32.92650035501891,0.4275195322458665,58.59896409791081
-19.75261995435158,0.45036660894226044,-4.845565750322626
5.426380265634404,0.5094138916705016,-5.658932145700697
146.57212183587748,0.6564650792133914,79.98585540849491
130.25385536000007,0.5373341724109442,-75.6263776764639
-97.49252035416755,0.29693780790792523,-2.373477339171742
138.44606204936326,0.6615423863963821,-44.578608124802614
-47.09291627426901,0.6722676897879634,-71.84863287980107
-359.65537775067435,0.9722184735227651,-136.4550244637798
-43.38903032273717,0.5160375070433472,16.469565620179853
86.38157509718484,0.10333630542865613,188.48952866014855
41.248828129764334,0.986449536644475,121.96556821809268
-103.6489536378697,0.4819440050867574,28.820346800150315
116.8715141099862,0.00559748815068839,127.78331293713154
-21.294569148964104,0.1247177645257409,114.2539470168511
-51.382229641318986,0.146343610744037,-26.41507268520458
108.03363348136521,0.2982489369554392,-191.48584907892953
79.69759844783665,0.7059883131065365,155.05130467525177
82.41292176809208,0.35086793133153205,-63.330128857940196
107.29702805608817,0.5320004190734122,-56.14339007011997
-141.7067437152508,0.6127109632880051,-5.138725383209868
-39.8247701611626,0.7146438508122817,-105.6761987973406
-92.85022698705194,0.34494212735476504,-4.740588413512823
165.44091067605154,0.8255074318177267,-81.9363620397603
70.41705254685843,0.070552770279391,61.45887658936861
-128.73982975812683,0.9762647114885656,-82.51361663388344
3.601998989581745,0.27090472582118574,104.70256956937276
-105.31649241066859,0.04754335703132162,-90.96467184647199
6.015330013956486,0.944335576248655,-7.56486508314268
21.661020001554782,0.17157937414440005,-31.714765599989477
-34.472076998248,0.725314569125886,10.678950676834603
97.86055329868051,0.5247194327208085,-84.27675944282436
112.67516585002606,0.2070477915193053,155.9302351324237
-6.027385333726594,0.6788631779856129,-91.74564227682956
25.733147335053996,0.23650635161707012,-37.88665554720377
-101.34663339334793,0.2978326701166123,214.01332089757727
17.65080221689459,0.7942856531276389,120.38173111450735
31.48537612595308,0.4592557253467576,90.51666202598872
166.20651588130173,0.38397585139906487,-144.20091563772323
76.87976571612693,0.8790844229598495,6.711791679182866
-146.3921666987355,0.017012353672539393,26.13727601347278
-20.367288563835608,0.9324139428199902,39.239411954405554
-137.18548948546518,0.287570089497289,66.0172370827635
146.2753206130522,0.4202649611501891,-70.66471789913345
107.18017266130364,0.45477518911232107,-8.02473193191379
253.88184726916037,0.21376620080700526,-96.4511268685942
-104.97333713968851,0.0685632635607134,51.73634373683896
195.9759561840273,0.7934486517951447,93.87972792922793
126.57312521518969,0.7118449491187251,84.06674473553191
-176.2306923539638,0.3558055300162617,-2.1289985596961287
89.6157948405413,0.5065385516727574,8.764586227037743
-30.719890121782324,0.6082441569778432,-9.8446285620792
20.92542840662023,0.926031072890415,63.277924734903756
43.038548848861986,0.038053552828799964,45.022527919831674
254.97877246308713,0.7062392788508199,132.94913275266674
47.924394739500315,0.09537355844952855,49.76609273085983
119.01891594940662,0.04421487129550561,43.65468841590784
91.36134230928266,0.02148056577859281,240.75022963439153
-176.28129881231084,0.5056775853574434,30.08688593649432
-26.258414680816728,0.47012941649075,-103.47596239952415
-121.13738559924172,0.6070175327502007,127.60934536616986
-17.18536950692701,0.28062018401510347,-168.92194037971538
119.48540321366077,0.08397511667489965,-66.10742566883417
79.79108786680365,0.8801039497849839,143.13297246098682
-245.81772732911566,0.2932260830799238,-9.694974171621766
-32.20166543348329,0.7366119911233517,-135.83969907680859
7.000706862898966,0.7717643959160745,-95.95180111186598
-48.61977327043782,0.2086774478110509,-3.873879040341394
-96.76651336298886,0.6790537486968115,72.79927856052493
34.68439704812189,0.11281930030370779,-75.42576142886281
32.631939789883816,0.34075382164344925,-25.037526847637587
-96.40289695517774,0.9899082669959104,-48.35527484612574
105.8375603907349,0.49223652755661296,47.800628130519776
161.56377172421978,0.007698444093572121,-115.55316813175823
152.72670267965339,0.755936808190654,-40.394318029720935
112.88509873206169,0.49441048619887273,-148.37697704595126
-101.9060081468843,0.3435430799610013,-67.47982939597796
15.456804845624628,0.7296536645767673,-8.217719299036661
53.226363258119534,0.9582471318804913,75.79369604092093
-86.54108040683347,0.20866337735603468,74.01663869055109
-1.7600282416653341,0.86663051103729,-10.808341811538241
-37.998644965052776,0.9703761338086361,-61.53405250449088
-4.983716149747564,0.20739225620495583,-39.62480844641264
-63.693967024840084,0.2465469267584649,-87.91583349897427
33.99649652689038,0.9189278002438075,81.49712545306849
68.45030547071052,0.9644490297814468,39.8828915995524
97.54516926414072,0.5678915702618873,-16.65241022101391
70.32998880204173,0.3186159717839613,256.61929270973917
78.43435993026695,0.673292953204686,-242.16350224572363
84.11721719875499,0.28056642875816473,126.92537634182916
161.50215140384344,0.27286636884614257,19.31696761391609
213.7110007374483,0.3886786079655479,-175.75802546118038
61.071071368875586,0.42565045432491455,-43.55199564840082
49.75824755340622,0.4763144354713895,-266.56199713663557
15.058708478437064,0.9522728452679422,116.14694434435775
40.932421971834955,0.30961950783767267,-9.466711841317599
80.7971897725581,0.7025810724859998,110.00633789648218
36.19338510524743,0.15277252018890364,-49.21631008494991
91.03049666062775,0.42891870926754094,54.35856158314125
38.045195566637155,0.057768982936669766,8.68597744663364
-2.5216328528524894,0.5264089948432258,69.62366905496282
-165.65175002302513,0.6001632394460663,60.50552643109287
10.015432046470146,0.358814774557768,-205.70251415427654
-66.96233821689333,0.9620180905013419,175.3061200179836
-78.80192465930385,0.5488404556484293,-86.13547721608343
200.27583235723063,0.28005065894805414,-122.75064140237082
60.967773881966494,0.8819197847920917,133.29092093458664
-199.18775529031765,0.9504533851896706,22.847916527151106
20.807854702346745,0.4609679186293958,16.905669742083084
-40.88640381191091,0.8236329704813962,113.02436658400283
19.758360858321154,0.28833932016881025,-158.06537660007015
-41.63989225749297,0.3925425307927617,62.03219096842073
-20.772422221847762,0.1365878873110442,-53.616952961321694
86.67192997955866,0.3649903099654187,-43.472940723382294
7.142814502656772,0.36202838903428136,-82.32011148104226
27.623015746187253,0.7321454427893038,122.44757531478052
39.46266680830075,0.39173640412393307,-113.44057322197038
-106.22097135433641,0.22740120960870935,10.51554535656522
44.752981468944434,0.06875424499721405,34.60968642771959
39.51800982893679,0.7864967069743731,123.17567111573646
2.9933091537165435,0.662439847065904,-48.080385848625156
-42.357052348824276,0.05425173698148078,-4.998561941266283
-21.03403496331803,0.9692604802640628,135.93755336596553
83.78124357370046,0.16344677308542255,-72.3912610688297
-87.85859023677713,0.7913058925110699,-18.71215229812953
-47.842910139266785,0.7723103539216719,-169.1226651316998
-294.30996132665524,0.8540909006118522,-22.162876909292045
-30.476275854563635,0.11744656314047541,-144.81239408945783
-102.67968851687577,0.47135067853585766,86.37958228466975
-165.11876035398288,0.7861759857970496,2.5036995636957866
123.41148533807808,0.9802162886842937,103.87156427826787
90.5365510885335,0.6624141983331904,-18.87229985168169
-73.21333270050155,0.5024899541726586,70.78897731327042
131.28731406666753,0.27608890888831705,4.741263659226693
85.1270249513251,0.71825239060109,-161.80240559643244
126.35306488475784,0.8743871336670811,123.9162499637666
-16.458936351141666,0.25705362964462,122.76044190694155
103.61506991302551,0.26010911569087747,-86.04117046165346
5.475876552163342,0.5844358291217404,-56.98889093557901
2.2997792279304057,0.6743878532306654,-21.534460029500405
93.06254194928721,0.5220267474547572,-175.37613718191875
15.529060432637994,0.1841342030220665,143.8273502208611
8.696202432848839,0.2928537630015984,-43.89810734431506
-137.25204877871252,0.518892174088867,-152.06462934779282
70.03261968117125,0.784992502780295,-13.525515582119999
-47.112358204897106,0.07361800534461849,-122.63926754631704
-44.52041842415785,0.2704166538387317,-11.700659120808456
87.07405788032865,0.9857674285524527,-46.47594892616402
78.75056143780677,0.1420516824945126,230.3231392614475
-108.15653826873034,0.0637952261594501,-133.8276044792893
-51.508625128444876,0.5693839893605734,37.17126020992562
69.55476621143113,0.3962846860184296,184.08940790441795
171.49658972749003,0.3261828461288213,-7.804155081985291
239.66105295160824,0.5659372741907834,-72.17991999754855
-35.667062561981275,0.4439547322504245,-41.92221419532464
20.936411872582106,0.6001361180756026,98.82290994775808
-115.27512647617178,0.38222215785379154,110.81526192976472
-2.7990387603295934,0.4767914331074483,-57.53258764775325
127.89108867909371,0.6956027382591555,55.816222428568885
166.90167109681394,0.5991557116718369,93.79875410353648
-102.72918880360456,0.9724154105951981,82.51580600070434
-50.10857402267833,0.9072399171659637,7.45491133088106
-151.52509683182308,0.6650729839315684,35.52204684225567
0.4499814250092209,0.7982667164496673,3.170753256106079
13.118979870407966,0.13467299125391863,-147.55692667777006
-1.752224829825867,0.1193023144505665,81.15332949997162
155.58539376289937,0.7185959556610095,22.709000884789777
96.14325781237017,0.6622140119575908,-52.95910455452862
96.63959921904495,0.3943086692243024,-18.321997410076442
76.1628091515796,0.7479247780503396,-30.19411962703294
64.2854427731147,0.6912020032407592,317.42521107754936
122.64417235596281,0.1612382377868523,6.130733462581597
-112.6056428923506,0.03307421511966335,23.355668259774635
-36.55205344716562,0.8183575798313287,-23.76990933730091
-9.049407674562417,0.9835143891743419,53.356138031468134
-254.7714956885915,0.8208707833639768,-12.26732334287952
78.76454080322803,0.9221990645790139,-13.744086739254225
-128.9527554288255,0.1504278711943945,-3.687914161797258
-202.16827492291065,0.40029090290336344,-230.93884788443765
15.701801412846422,0.7486302618801264,-72.0219613551737
-81.09102140472933,0.8766728014608073,-232.33166784332067
-26.331068355325893,0.1930383583356602,-171.1514669941843
-68.46605399056202,0.9421784342130278,-8.080276386559158
-49.161149910363136,0.5594172676710655,-8.546880304633287
243.38544635342294,0.9912989527084464,-108.14700916217454
-154.57299225949674,0.6494088292654798,-129.85471477496645
35.09722123324062,0.931618044819298,102.8725264686472
44.41244567895967,0.2154145293531311,-81.52000582007862
-125.67751671628085,0.6988641321285178,-77.90684905064147
8.842644282630665,0.8930805816863525,-44.97105645731219
-62.15880961773944,0.9356249071665499,69.75232501256137
-160.26316928573772,0.41071686636752247,24.148107952336336
36.231406813891084,0.26465674985493814,18.432281785763802
92.65070567887085,0.7100292878810869,10.036780744256008
-62.80110138500393,0.5886230822738823,-117.37494475263497
-58.830065976790635,0.7032845117376002,28.629252964584296
164.65946140031494,0.6072609467008937,-62.45953908197557
-110.9546398582004,0.10427199848259383,60.45857934730277
-79.27993985963168,0.2747264168384008,-63.571828213940954
121.89432938217337,0.13716567786024958,-54.314315400876346
-175.24296660659877,0.5416722575109085,156.53521798105572
5.338629723931727,0.6896936579746363,-4.547871708961147
70.5311553046061,0.6287972376484886,28.65353736916835
-8.362795113507193,0.08430695519768627,70.86314996610051
-53.36692990029645,0.08764712477881775,-190.4722088202638
-122.31122407422596,0.6129642767018304,234.15046763549645
-14.5612030028345,0.7439930074709673,-256.45887175854034
154.16050714963689,0.14162690456201077,-179.24171144189702
93.38309529708886,0.3107693301669062,-6.290724448011092
-175.29561815148463,0.013957944683743229,-62.959524909475576
38.38988113287094,0.633631494137777,-151.693109548834
-140.95379158519654,0.8150097034622658,21.353533181509817
-80.26997620690408,0.22443404499745068,86.483902515962
222.44162052008303,0.9854699805670708,156.983398128875
47.698236318150265,0.6810740578652928,-26.525609195436285
-75.35954122685249,0.001987865064594474,114.23614162433515
19.938368359888166,0.2719012086067545,-2.38736911563333
32.43831735712226,0.11808754292459478,-59.57638939752289
-86.1156628446203,0.6846071887989039,114.91262353233674
29.330336512195142,0.7880511253888787,-30.713269310895157
73.47401717128619,0.9701209605314268,8.038695342020983
-135.04505151555549,0.1071866154941421,-120.92628549816362
134.47888385312305,0.025399590183260323,49.268429231409314
-56.355120044467924,0.18788210349815715,9.912450729286853
176.59995824266468,0.3700995798027348,22.047809630183863
74.69056838445115,0.6101488432622404,58.01948486632256
78.46432153244407,0.8066653106100085,-97.57011096991853
73.22072419154901,0.7542426173712621,-18.98743860779313
109.9693302468388,0.30599580199663,40.942809955515195
-39.953501209875114,0.46902358140167744,96.85571475543426
28.639144151176843,0.7746136318744644,23.740918165308315
157.87520204925502,0.48855487422351007,-143.9631865246601
43.25437696176262,0.09730181336294674,-66.7729325159297
30.78489523138874,0.7444598519989138,47.164272940710205
68.53910841781543,0.757702670071276,-190.35256426663528
160.31649066707809,0.5982275061002946,-88.50845044693064
111.56575460130192,0.22980422840082793,-109.04533544478734
-112.15115539112206,0.09194091420090078,-3.37163590158146
46.2696392601575,0.4594598881131604,61.09570220463324
-12.011838301832558,0.6736009876893782,8.289690814516684
45.237693345964054,0.8066138104063442,-2.9490645952816297
-50.55652793242954,0.8416808371172083,123.94239493549131
-55.43501140921707,0.9842246021430487,196.41138342257253
69.94626671772384,0.9690979331453649,-21.89047425627127
5.6343744968389675,0.8494145583086734,-16.792465235736703
113.34895843460298,0.8541095608159058,168.04810906604362
-2.571334205271136,0.9950810431460039,12.29977169791593
37.21509661644477,0.7761114539393911,126.23686816743398
-16.57432172860744,0.6529947788271213,-86.10561543083946
-7.2856096562940955,0.3760164489641967,-30.933467742465886
50.77775376000868,0.08427514245671941,142.41008942887248
154.95430005340182,0.5307726098129504,-50.289312903406746
90.77140928191542,0.8862166675293495,88.4508633315006
-54.66368310313885,0.571831692700486,107.64710315203003
146.1355723892055,0.9055746354207902,15.007933760196321
23.427297672571736,0.7557926729730404,108.99316483984727
-131.73965771240418,0.9365332680655754,-46.90453709850124
-95.54213481437628,0.8286179537704821,83.89750593466523
-0.22724618154285567,0.2875850576029524,-35.73309254427666
45.13033233909766,0.17479387334733143,-66.95890900836731
-66.74931517933132,0.9690133542813855,83.32686242420348
-72.744447113375,0.6024340619782226,-27.01017874210646
84.27594802677993,0.7222162105758467,42.27612098769312
-52.13958053165252,0.33086311394081114,-14.701434168615462
-55.34122960970589,0.2500129594134317,-28.52538931294279
-52.260497290467754,0.7559726617370626,-77.51165120762077
7.369670435670621,0.6262397461473287,73.09270883799425
-71.40765929865147,0.7580032019817643,-136.0452509644378
-67.9140551131368,0.16663553398014608,6.478559180543996
12.789868291419609,0.16590320727356866,-42.79751789997684
-1.7496380278857497,0.10517873548915158,10.535160792077884
81.65595815991273,0.752866273679601,20.193607087112117
10.162285995603302,0.7953524826181526,195.5755186522795
22.060966466845876,0.9528717864713014,48.37940553275954
54.94838487088801,0.769103733391799,175.39190742133636
33.99747935843739,0.09914411231666076,-2.4755023933753595
-44.582383039344464,0.9953103965073999,65.9458596169754
57.333858433136385,0.11677121554667569,76.84911031637286
113.22463627699048,0.668427972416362,20.49961641854718
-77.85714643535795,0.6395871776779183,25.610182703082994
-22.915610252144454,0.8226974982762036,170.47685048825016
-38.682822957750226,0.8876718716246449,12.399785867306909
-20.8346644932011,0.8347861752262974,-28.872576416464412
84.33652924807278,0.5419243456408687,-1.7121036494492723
181.10406442559474,0.7581312374837627,41.72182718251617
25.300548478664485,0.40118426482824887,90.15958808548405
-94.55718747981628,0.15437640163045108,-143.4999839693126
-67.58132821484554,0.48299280377161047,-70.07205651368619
-225.17534084115857,0.1805556189360319,6.230062823358976
-65.16722385499493,0.160612377815177,-272.8265350428955
-83.93394413488744,0.6796564117691569,-43.029095562172756
35.6151610693434,0.9116428517574305,-11.384255244760844
41.76916694664382,0.6570521510178666,25.038996341879205
-186.00446626824717,0.11699646700683919,-75.75309269082852
15.615757348980718,0.33956646416327374,-35.31793341045169
96.8579091322832,0.7805307208754038,111.07568207643008
-131.57454495184214,0.3841528508366654,-142.20465251812652
-6.638304000322484,0.4282956473841941,-2.9104803161450192
39.79537004582878,0.7406876453763621,-7.313796527067273
45.95631494256649,0.5595007310265727,-3.76943430903982
77.21274908398699,0.5497294953506272,146.62925106047012
58.47249905108727,0.2539896606752262,20.634863752548952
43.60293406650009,0.654813045572795,-180.7315484480592
-154.62017997132716,0.6314199275414935,261.8821971153966
-98.27316196532927,0.6041529660629442,-40.32394342581833
-126.6308979347507,0.462617265671712,-153.7782586994271
-89.00085025054778,0.05623026458241176,119.08580344546893
-68.29882904049185,0.9183122713966808,64.95091693598991
85.74331394680144,0.43802802441174415,135.56273704742102
184.89792603426895,0.6074706961486416,71.73127973664536
104.87689262384623,0.6350945726756768,-50.56079268602265
-15.337232410784019,0.16123750894329714,-32.41121779304812
-76.08897768235559,0.6994506522357415,28.40033724380669
-181.61688893496816,0.1736894454353013,159.70631744197334
-31.322749115487863,0.5931766323640021,-138.96161730502152
-16.347873137895686,0.9785302596873325,-61.291593178450235
56.98869450088194,0.12476546780588382,0.020170104056111866
-29.447057140044524,0.5950479111927544,-74.7829593133547
-29.249717840853258,0.7387884209471715,130.14592574309455
-15.51474346501692,0.8653754937557306,29.954937772439948
28.70300335208617,0.19327652551801644,65.27568579515865
61.72239782434603,0.7345072644234066,-18.345958286967488
176.96206414580234,0.15863350846736535,-127.46389401414588
-90.82029366602046,0.8502259381778271,-137.11486622889427
48.44934477907653,0.9358519935838205,-33.357685461707995
49.644683557323916,0.3264741170120101,30.56223741563846
-65.05671044179458,0.6190415040988627,4.748759826695436
-86.69410476564548,0.3904716957220479,79.88969675516186
-127.12643103788734,0.18100035721384455,29.05555217415392
-78.30154897928223,0.3702880241012536,-28.282747391993084
-17.65346359584384,0.3207674260007748,-11.194105467817582
96.36488243056907,0.7261738250778834,66.59204822192923
13.897266316195015,0.6163283241935165,84.74451798208791
-74.15576120911614,0.35366654292817135,148.71862596634688
-3.4830109096206603,0.6125188946825266,13.025925127827511
-135.18177036488416,0.40149417292787226,-72.48439398109348
-63.04072504872321,0.6652899159093402,-54.991566724220256
-117.42465807651436,0.9288962974680005,-138.87202315337913
3.7387050601411267,0.9049891778200049,-13.513005513595813
56.76291822235827,0.9039676829281893,83.54003012751645
-96.2532620065657,0.6117835281589242,40.85812228636524
80.65806956529738,0.4631730800344698,-108.53081108740174
60.436761081846356,0.5490866082182192,-27.11420974039588
-130.93752833647238,0.7869299894298977,-54.22860412820463
-101.30280375449736,0.1773491052766344,-83.13781907064583
232.86838189121147,0.6329168479363375,-23.335078392516337
-7.200878053061882,0.8196473564808453,-189.63928474727754
82.03643793143415,0.10834613846380714,104.3610790267123
-85.49403277251146,0.15794601449932755,-65.81627887908897
-131.30310018031287,0.40728553958363967,24.612263545673343
112.07006977597773,0.0026932716689125336,-67.53491436191945
-18.34681513209531,0.9861238981585886,19.673597135567654
-61.03404129140741,0.2872534035100478,-173.11314314189687
31.976597376111794,0.9579657141169504,107.00887516877195
34.19958792466053,0.8037965886485696,30.537447072653222
16.86765526611933,0.88461382838909,6.892306220861884
37.88407365158663,0.0355533418699725,-181.07281639777426
37.093741555363025,0.6406787345509212,69.47946709562687
-155.73982358463851,0.898074560866325,42.970010192926765
166.62649126791302,0.004983018758880409,160.32083105092997
-162.87928794068245,0.32700127324746786,42.83060682283888
-14.655154487909911,0.5577727423426259,-53.19958025166317
-82.87504976537672,0.2840238145982118,-150.60842774411188
-62.773848015757075,0.16617441184743975,171.63687056895483
87.29829025700647,0.8820583281970203,-65.35654990649623
62.13567006823881,0.5428441326661982,-26.31917166445058
52.98075656568588,0.2869218032864791,-81.68663400951658
-124.83236515610908,0.8218505835311202,-68.87085872149534
41.7657469478301,0.7213385061227318,-47.38679087845814
52.35537237372759,0.7651183063698708,61.30568602861188
-37.5052272945423,0.5393512789880447,185.30859547658417
-20.469582136402177,0.053964181321246474,126.65595613140226
28.019217386373974,0.08592931729274489,102.97912055914735
-38.83906529091491,0.894602177475626,72.28975186772196
-59.64986858545398,0.15792730335907978,-111.27770294589365
55.73653251638948,0.7311230114837736,-257.7272414249203
35.60932032316006,0.0826201127158207,-17.976285614633557
-25.926230204237154,0.18489655910254432,-42.62954828320432
-157.62810356004368,0.9960741058941807,-99.68996434678826
-11.501043264105279,0.9425676238361138,15.38242608443626
-13.049380303246041,0.6080145206141953,250.80866276044094
-6.5938490674659995,0.12648927600744098,-31.90364802868754
9.122899294660051,0.961169933442595,-7.207567877385698
-36.94159470956862,0.16728886989574854,-55.083169026402956
1.8883683187415556,0.40028087676895985,-186.28494829389865
38.6368770167856,0.021793221642397165,-64.19839948141312
-23.571273565408475,0.20649599447704747,-45.814353700323636
-90.84568180146944,0.6866144905572266,77.22625320063467
67.59863863323771,0.41911803244197754,74.93040963641872
-105.35796206969236,0.5820354309204927,-54.79881777216706
-93.40925710201576,0.6490719341382484,-138.84149318106267
55.934374080139435,0.38750939645714,85.03906611090581
43.95499373998101,0.704424489261984,55.83521724058321
166.7768206184028,0.3850779124860706,-29.34410078932385
25.13528138304691,0.37589655189772975,6.757450054019586
-75.46579137187925,0.3814858636687761,80.85462385730557
41.930397244399906,0.8456473565037881,70.48776222602547
-50.45044038624839,0.8313747421857369,-110.66968331019933
-81.2914286236198,0.9358979217043528,-61.3897184096763
18.989590191839326,0.12377083300126801,63.66253669303287
-5.676512258530368,0.7500806902486227,20.52260250255138
28.738113605355274,0.7801279653110829,24.341556190822548
108.15206033743398,0.8345221505682044,53.07152222825706
229.26847543150313,0.08857216503048182,-54.28609579481047
200.87324438734075,0.7059931829541567,11.24513329713309
2.6270797146491507,0.16583606783375748,36.54330728548147
86.18530690852506,0.14639717855581647,38.0018070226493
6.067807795702641,0.166727275905163,17.29821385765002
24.42367298762459,0.13076166717988102,-64.40487350369007
-55.08913165096925,0.35905062849417646,-286.6401368104797
94.537522918821,0.4529140443748124,127.11612701691284
-38.777506903424104,0.870573836908405,-150.46088386832926
-53.86836583971216,0.7785571619579797,19.843936547374476
51.32060906099939,0.6640537428758875,155.17906613165982
-27.436716175981985,0.07614120716547756,70.32769207815595
-56.34592925309265,0.3276375886242425,-103.62674575674664
-5.438533156304103,0.03486360471454997,43.7140795184225
-148.87982834753177,0.9744935038513097,118.81196502541587
-13.749458329319458,0.08964412733358917,-172.63758582627636
55.81574474749221,0.22493962080551833,-23.559966393795996
-133.07949005599858,0.6186472903932178,73.43687617371629
2.9431178939103533,0.2688877903900083,-121.77289220581875
-133.576280519657,0.6642573534883853,-131.07727128079014
-48.9117453089584,0.6890258462155954,33.105483164607236
95.0193801324562,0.411900230273201,-54.837569623978176
-137.49287604913994,0.028852795546936316,24.737766266932915
1.7635159424065499,0.813582968617743,-0.9858020449529371
48.20551468438397,0.2993099854218726,-165.09968794514788
-33.10299552980813,0.10130480635042338,173.4595942300877
-6.03501307246116,0.9285721172096162,-112.00654193198305
62.942721418126034,0.5543668893306621,2.38186533765503
-196.0179139451262,0.3575907913915456,-152.06549933665855
-26.684728528289554,0.6310497736542114,-185.6654435752332
-159.74624913035004,0.70290155212252,-63.11244480412046
-70.76957892857834,0.6232620941858489,35.88378999400678
161.54981263537093,0.3368393952789669,30.391093186740324
-121.87108472550425,0.026449882369628086,-50.37587249238754
-138.6250742400848,0.43711246290756545,19.355397893343877
-85.60144795050104,0.23818710277851995,119.4516728211038
174.9014030122935,0.43335086497613606,-205.64039558344086
-243.53829680952686,0.6593893024533747,17.166259357535786
15.762341638639207,0.42841140521538257,-45.682996241154896
143.2943489151046,0.9077075781163875,-135.49466108241936
-48.980247165111294,0.3774177439584542,-59.56619420963199
-4.982730971831258,0.8416258027109919,-20.274145372197296
-45.22616000979727,0.9852287122214585,136.15631147360637
16.618268220028543,0.6406834965829152,20.8115301884635
21.71125521862213,0.39010480222761434,48.89791012325417
-98.99240745658707,0.44612188034601374,53.54633812084262
53.27656635226962,0.36325464937500007,114.84701109150875
-41.62422733018539,0.4315157863990109,143.64780326846468
-143.8767963263248,0.35677729966906535,-73.29262971957267
134.36096164498596,0.4758414777029504,57.83625773770462
21.220128091193537,0.14223545026854867,-60.86345067088412
180.83637383298608,0.6196530761794511,-95.73156511790675
25.036316594873792,0.3721773531362452,-68.37309806846942
-20.704097534381624,0.5166414050485075,74.80403351580158
194.02730652309899,0.4585152172183735,-134.23822715832665
-24.645534466249945,0.8523848628532964,-77.3035622988333
-75.3201902768403,0.6658916702384459,115.1165420236562
9.489262410647765,0.998947487575738,21.85353719988636
-100.2258746654807,0.5814129656238805,80.49244359043838
-71.46893394981704,0.9129229446690985,-54.06565231583379
-171.82942271699105,0.22730127525389576,223.27262115954673
96.53754907575221,0.3778521269529924,-72.22876618017146
-86.77900180072025,0.14908737475353606,95.40656575566675
-25.756314249376246,0.0379888594837855,-179.35029118729875
204.06376100231043,0.9205106478548568,34.757180206474615
-21.66658490280589,0.1634652788606682,-19.05961568533304
-41.8677754174643,0.29265739291884585,-183.10652342844546
136.90026092907001,0.41830071105099387,73.1085486173034
66.5061999452515,0.6079809246752186,106.2510288607669
-139.73877029914468,0.030881043060718816,-48.90581097703479
-83.784698163253,0.22368255724518982,-157.56041528159642
169.07993139414407,0.31029392959893576,-86.3668742999063
-53.63491672549203,0.27433740740918144,-312.4950236805276
-248.49055346969294,0.6617358476560505,195.55164064645462
-209.63107097307324,0.7143915074562576,25.705598797457917
167.71081029593793,0.7888887972265087,36.81325199112799
-68.34184065786431,0.47896308338124194,-115.88350333443059
39.418787758334034,0.9521153792868682,173.4566665082814
8.926968304584245,0.7217893848179232,-31.581346639639403
-84.17838206485494,0.24363476983099153,-111.85108598520235
45.19789584040759,0.9071195270379782,68.45310342367905
-84.55299428445669,0.43509559263848563,62.49738424102619
30.582281595992285,0.34977693850828784,11.888512161077912
49.40913437799308,0.19158693100643664,-1.4792603823685755
-130.1475536519753,0.15993926204838227,-246.7635679290093
-71.8664806804862,0.5482449727550568,17.92305066319057
64.55780066865611,0.0857950431833715,-105.24326361985192
-172.49961999844118,0.2845815905835324,167.8029202516251
39.02852357711032,0.0479433368614679,-184.8881965398336
-186.22273410309847,0.3842492897618305,-110.8614876327216
-103.05780929705506,0.16772033852245816,-125.52762277682541
-19.238001076774093,0.510664999266262,-173.46281244562977
-86.24546582423226,0.24193737271601823,-31.818013072368373
-1.7324784181043624,0.7611639745010618,-184.94871582296935
58.09713527274336,0.2552978609316724,-113.85485487259895
-55.48105078336087,0.9227788762712895,-109.32654477266799
132.13503894979155,0.6428228747737706,-56.685269345693115
124.62725935559969,0.6296418898289625,126.21372939072984
-61.87074117661931,0.6172857635590463,67.29735421136593
120.15795857364013,0.8738080481814088,195.5777585239271
-47.37852437672551,0.02485219670821337,-131.57277990395312
-71.46380148711624,0.1391085835339908,-76.52295859262941
23.78185388010907,0.8518510008515914,36.88120115877017
-241.5739861100275,0.010714102780076784,24.845993565893686
-17.595803160084493,0.9168022309788011,-100.71297991427026
75.68559353492019,0.5687294286568306,54.27887811231549
59.76836200584842,0.0065233543101848035,47.29118396828103
-14.187733273347256,0.8675396408415649,40.347051111844685
-100.75165137567923,0.8276399636741063,-17.4996717240876
180.27518860572334,0.8795096040281826,146.83129123498034
128.53656466959546,0.7383689915619075,57.60231589263923
68.76935675307782,0.4956639905816518,0.7089643244149104
57.59218187855929,0.6720572920484661,-183.09748712855546
-62.30645367351899,0.612639467532455,163.87486221984162
-98.28451277589122,0.2836244945851929,62.63672256285814
74.85392254065401,0.164538600275845,-6.20636898149537
19.568327962052738,0.37857782109479554,34.36461695246207
21.746708906050838,0.7272523691412156,96.89783046734993
59.2280485238716,0.7498506221064142,110.8836029156245
115.07440454396077,0.30736025342232953,-10.62161017834139
-98.23399577668363,0.8719265273302194,115.24752404167242
-154.93300552438203,0.1348322937084767,-34.56567353219361
-89.31725107818883,0.875284176437332,-259.5981915006341
-17.39975299189407,0.6150058276041666,-113.27935234946203
42.688402439627986,0.31849788967334003,193.822548103337
-26.387432665763015,0.8796874847304081,156.5810655137979
3.3225216505456574,0.36078929492322964,143.74517005372857
107.25397989552276,0.3275657810931899,-100.67580992000502
86.59572994097806,0.8324903007185234,21.11244993389384
13.110367722446933,0.5049941081731102,87.83946713797125
-120.80505257794823,0.05229217844573175,-205.26998230495258
6.179142214215803,0.9420319195914458,165.50320718342792
-62.91359348342305,0.6480922237522181,-22.702356768584536
-89.77122296070502,0.47265221748193054,-138.2925778535825
53.32928843674595,0.00842414948930692,-66.38390742139924
125.82885703642714,0.16222937381068225,-99.042167048908
68.67802665195457,0.6233083610948033,46.74308102070874
-66.95491303724724,0.838502993225687,72.13501902063601
65.03403107172522,0.8553024218632366,129.10202529971826
-130.541638163147,0.4545234836302393,-21.057680134988907
113.9553839567095,0.721018776562817,124.69620018331366
14.15657504618818,0.8706424558178517,24.282540652655676
-55.94017169073744,0.2921316226133184,-27.940954743816633
2.6105715886628,0.176248694564625,-9.657256898356474
-281.28684889044655,0.36775204535143424,2.915705055286372
101.59323620017861,0.3882314520283159,-216.72189799921208
-0.7630326318017044,0.5320422641129601,107.51882583790568
16.465706925540307,0.432285355870794,47.140578930874206
20.44429292458642,0.6876626275955293,-124.30923380669343
97.6920305646712,0.10783907655879543,65.7420003320872
-160.6519029770423,0.362495740415662,-38.43787337088545
104.07249073970999,0.362542192388964,107.93739516051382
-165.2721752893893,0.31309281406144907,-2.096230075638114
269.2539640332917,0.8427143645357346,29.73329683945318
50.275933221250135,0.5837516044739361,17.56403846266122
-104.48337782873128,0.6518704080656779,1.659356960711698
149.73276314068588,0.8072201721464373,-219.02406520779624
-73.31766174554674,0.5623087706919668,148.3088646340475
123.01616725749642,0.6696373698409739,-78.54699284457148
159.4615597240682,0.9161801440332688,-50.72450205620326
-175.13319117173236,0.1349503763030554,21.27850268406399
4.865611434785928,0.6081042373349016,19.654386369948888
60.49301563184591,0.9247603364247367,178.25983986855496
10.551076397303678,0.2278283983543361,-211.8267160767007
-212.59287624446924,0.36415764766237846,233.64541349046087
48.91498647422574,0.5431448408444854,-52.45326354746924
-10.761913517933786,0.7923166905221581,-111.48343830812767
-52.497489562583,0.7359308805756092,24.75906789197274
-44.243267541186746,0.9166888057644207,-105.72247277336622
218.9864735866493,0.25977017142911385,-157.74682478617805
249.52272423461142,0.7928227512999425,-55.78634808001669
28.78869877625553,0.9322469214456333,-108.45893472950262
99.4427458087975,0.6071318092672868,-75.39465915642698
-76.65097715794646,0.4769164728007885,44.75269264137492
-36.67696030722813,0.9409762567605723,-58.63978820207015
-142.9213346779014,0.7053685741633295,18.97566826147187
-39.53670806299496,0.6979667865665367,-45.41526970260372
-46.37551064889224,0.5449850339192185,-55.71506934589161
-72.45192800166409,0.9797050994005071,72.95038210257987
280.41641897451746,0.9132728692664522,40.67258464016547
52.28121569145318,0.4257219668181762,2.8700518342244017
-134.74503884527095,0.43349013268058845,91.56442554875004
110.4071733383402,0.1198868149990765,95.95939997539644
-117.11220859830935,0.6085867943553998,-169.10620688368684
149.5714871467827,0.3021906141211964,-43.38985829770968
73.0761663142151,0.583604702867492,17.57734070001871
-51.47848613236086,0.5085652572601411,-43.91474836929807
170.5551792806397,0.303049834951869,16.88407936425017
5.015317975273163,0.061881758998533765,14.550256820996003
275.1642820995201,0.5111641859996935,-130.46667379852707
-137.2733592061438,0.4725958389313578,-213.6764748749321
-37.10922932307786,0.4585564070485718,-34.70780237484824
4.488448310712461,0.9998864916681146,62.79018516108793
15.454187417437193,0.12826030101383656,131.06538185130526
-61.58423688212432,0.7048624060800275,14.732160204170325
-12.382728342141446,0.33057098688772757,-26.678092265385406
-18.270100671062227,0.7323751736099645,-124.78311321302704
72.52428829959844,0.18593802325619646,64.5995771574767
48.20324519721547,0.3365952371264571,-12.71205427079665
104.56951696430899,0.08456530392149286,65.86974919960481
-67.64089467209968,0.6614899983577833,-107.29597623366492
47.37719180576712,0.5649307759597326,-5.556143761336246
8.233226787952082,0.7007913514547877,-63.00900579518246
-44.741379434394105,0.5565252996697589,-63.032745420559834
112.91406269746491,0.6536828898619496,-121.91143227242517
76.30056752184629,0.33633716289959914,-161.3463366744156
396.9523516699765,0.446496811681523,101.78419558031402
-3.111797719799755,0.44466010116105337,-26.966072085164477
-43.0346979402135,0.8378183827635427,13.769974743942598
-2.392695531150849,0.10361816921843414,33.10091477161471
-122.86056750297871,0.3982249001646945,-63.82980421956949
36.979203538773326,0.9399968267933828,136.55414434787204
-212.63066893619563,0.4007635358238715,-76.13350909507295
-178.0849650807464,0.40650523903360125,-48.49783638932178
12.247144130284463,0.8764052582349512,-34.76033438890499
-46.976751094257686,0.588529656292276,75.59680967295279
52.82254601577865,0.11948233364519356,-97.3489330707016
-27.344134962184434,0.14290675250523865,-63.31868847444856
238.70853768613506,0.20273629009777017,78.31275984889766
14.687658794626735,0.017407611260394917,173.59943541608027
32.16416691546013,0.1943249028278563,20.383593748262737
-128.52442645176313,0.5666334423578674,-278.1278453870408
-253.52392210363647,0.2126441310018855,80.78464789757773
32.12462008804409,0.6920370922643925,51.438897891819266
211.27357018470855,0.5727636697706324,-169.0290328880426
43.09506916877454,0.7228919105381441,37.73767894607103
-166.81316431615357,0.2592727881474013,26.605650854257373
113.36553457806656,0.6448545435023443,-55.60308630641734
0.7677149845534099,0.02354108233063401,181.64912171676403
-19.997481338628003,0.6810550374508333,-31.46747599246449
13.020329372123271,0.7738862488358579,69.01435391882966
-33.96048186261993,0.4085199762243983,-79.56089194767962
125.92119678739641,0.7588209252048811,-189.0072215873873
38.93048641588375,0.7369294028049385,-15.341988223868947
-78.66314029777716,0.9675695104063219,0.34506228673226813
-59.62800104204261,0.9903192258086656,-121.68760384326944
-66.17738331511079,0.5108572425855691,-87.55165864932319
52.93297385712904,0.07470525848815879,70.69066842346568
-25.20576448475414,0.44127902559308074,-30.143804881899666
-72.94003197995082,0.68998932440498,-88.93785423260552
82.22140813130416,0.5667007792436198,-1.5183246100863645
5.921933820912726,0.10110024691418895,-44.924265041915476
27.908044777362157,0.39145248538416255,-19.332933263883483
-89.0109787694656,0.9319650194955345,-100.16279579443597
4.911408810038128,0.587139536447098,-11.031087060415427
260.4203272639898,0.5197622056122527,-11.533362742972097
-37.823168371002104,0.7097376917805926,60.20922610799778
-77.51401785293717,0.2784224159471477,148.3524392974307
124.96970863314742,0.20436832173975372,-287.9482936634435
-10.090425481896432,0.29935873324327433,-67.08640491888295
-180.51603545527317,0.2698104600990543,-93.08523127985796
290.1164976437495,0.43539892746854214,-46.18874494534751
-128.29261411090883,0.9858037721454193,10.131927627708134
-113.90252644358188,0.14744466884414986,-48.66920079475585
-91.46320144540147,0.5934224160512819,-74.07943915349591
97.1983622870503,0.3579138651096321,22.32737155023284
-25.07052369334386,0.9489387285624589,-44.87352032011168
21.348375930961488,0.5555828550391568,-147.398307278205
-194.26081787772483,0.38193325261020694,35.968636532413804
-7.237117860716339,0.8065352494185851,342.9031269532652
-150.9413517315607,0.8118700913395194,8.246375736670938
131.35871564185177,0.08453313316534816,-9.80039917992952
-119.06430018692677,0.7675892996035087,-31.907439180445056
-131.17741749037214,0.4180459922648576,13.774236373246696
-87.62746496702516,0.059430581954224126,-6.294614392752552
-112.95075821078906,0.6974856025543598,-191.55762520781408
-3.7150691134544056,0.05648256289376363,84.48290944917964
-71.0704309843216,0.1753259065335937,-199.28976330514615
-124.9201473442326,0.23076874844103035,177.3457650838024
7.916051560190625,0.5231122677539553,-88.4018564273714
-44.44900423522282,0.41307530461696085,-77.76156378687855
-42.6313176423964,0.5770819685881611,-141.0484776787342
-111.26673488789879,0.20920272849011212,43.823598986570666
-36.80156296672828,0.6843959415694488,-71.70970851579031
166.75171604177788,0.5150718256312267,31.93011836950617
-72.42652963786928,0.7395572958692537,-173.85415280865823
12.518517928033827,0.6953644891132711,-80.18171024045364
27.028925942459956,0.17186691212722172,60.89953125651687
-16.353630887767146,0.7954537353631354,-43.250101126458034
-7.114208992851894,0.9715458555495458,38.02764486977633
-54.15181385197013,0.9275317656862301,69.88111784430596
8.403204839881422,0.26427440318952244,-71.85965236706092
49.80248371499618,0.7121033680179389,120.55829105678801
48.98190915651504,0.2534108091146,-8.386542654915282
81.27014992295894,0.9730284094940612,46.80005688225733
120.14110956954566,0.17749602310092483,-45.04806099167366
-10.764886479192318,0.6344185718963742,56.720112226508014
11.079176755508186,0.3023963424853727,-12.780732649697674
-122.86203880764917,0.06661038586576684,-178.16945559628482
51.03123883612213,0.2730465814171754,33.47942613358818
-93.67335538178526,0.32478878982551773,-73.46635753186457
85.08545411828892,0.6885169649232119,33.184191806392974
-253.58533462681424,0.8438719565984159,157.1559203043458
168.06221463960168,0.9952354842256406,-161.45023638115597
11.585381904317247,0.49741491228979384,15.29236579499964
-72.44955169460995,0.35965652030791817,89.71986823376487
-1.9326137243791865,0.5550102855181334,-70.29368527242987
-77.4549023869146,0.02995265978155448,54.63181376599299
-38.034785843911514,0.8122817351952252,-100.42292050694424
-16.189663859384545,0.9353592775811714,196.24622580448494
142.15108909728258,0.8778612716498487,96.51830159958087
42.439680097338965,0.2823225175591255,-27.739902703989227
-22.694610773000274,0.436722211038989,-198.92271830313157
168.32949144725757,0.5691845207128884,22.875950938208998
-176.78053741805886,0.04773740739015664,-93.26527991230928
50.90157855746719,0.7613639069170289,5.909579317545283
26.258030285547402,0.8104001446343984,-183.4842839576229
-61.399566578017414,0.34350157053912234,47.35254569106757
26.27845550586193,0.4958510684607117,-42.07859716791199
24.62995205607001,0.8225908495897095,-76.37952975656252
-10.32961180608166,0.003486114411962671,-194.085663631496
-129.584450979025,0.9991759755918983,164.72520385899242
90.42284227298661,0.7422570733263617,32.735661514817075
27.559105421034996,0.6135587356911666,42.63741593057277
-78.04814449235396,0.4574755080296218,-79.94742237841007
72.46838242018013,0.3678034967821052,66.68963860600245
7.623246070863243,0.46921030873187575,-124.54598785191709
43.48900869124641,0.25503917994536895,50.9866297033775
196.45072944991884,0.13437165097209602,-34.819691386399946
-78.50016153806591,0.8438383826429933,-61.97399583798374
98.02978024566721,0.8599979036962528,-25.13727994137738
63.6643221979475,0.3018059418757759,-66.12472459084219
42.27303651076255,0.8591719089791776,170.31338049265935
20.86537836959253,0.0737468083976992,54.43112941521719
83.72596666198136,0.9976479433892338,41.02939663407222
-327.4926873754206,0.9992518809717185,-79.15128430754062
22.30535551410748,0.0341840832863094,-29.03534791768288
-71.72840312343858,0.6915886861035869,-35.73216210880973
74.53279843231122,0.303183243712165,-79.8746274444056
146.3696340228389,0.9644434820863975,107.80975135373545
-6.9457111189391645,0.45844423692669334,-9.632832631139008
-88.40949689912608,0.3052882908222233,-19.221040492612346
99.86249004460454,0.682404301297458,49.32401157009006
117.92235865435998,0.899153392402591,80.33645785846558
64.88490350717957,0.7195465984729246,-55.96795591832676
22.787950444540105,0.40775968134434426,279.31548556893927
-33.873907126950144,0.6802734774172718,-198.90691649554813
130.72263353569193,0.9858124835584157,-51.250811726422455
47.16133128609928,0.06542535284155815,-175.54214222193346
19.78507104710828,0.2092655855769353,5.217917452055723
-55.85366496657003,0.7934767816993704,-121.85406321267651
101.97176098150082,0.16143876249762135,-49.59755871286063
36.889126923433274,0.7934693753211314,-177.40690201153595
-56.815798904886336,0.7193220143584486,101.17806765457141
-66.46593724091419,0.5592067391270977,-56.75422683105803
-120.49837446812755,0.8336630885005201,73.39562762590512
-100.54897539140093,0.09015704273475766,-176.8141262917723
77.96365350831825,0.2830623144521164,-240.61619879397446
63.73581400512317,0.5537408077359135,67.27844408280346
-37.81456642386713,0.4161876263649471,-75.45030063695026
-11.79775430396742,0.3246305158264531,102.61455010761225
53.29450929618715,0.9027423280117431,-144.6203980122968
74.96274772037648,0.3083389936051081,1.740302830605522
-84.32385355141656,0.39560819992798013,-239.52573782130196
-81.34994544781972,0.21395911569613868,155.5556709103016
23.512754045679944,0.8212604788337514,-16.810532354981582
-52.261175477552044,0.5709350452936419,-12.218432416313853
-28.73943095242041,0.893468162572294,-1.2731791843741604
-66.52115814204093,0.9704992712813595,52.90963941509575
