-0.36712775086341914,-4.19063095154764,159.72635910378332
-3.79906351452119,-9.076163244753022,122.33571732314886
-14.49257245077156,-11.023963061429438,45.82518819132184
-8.292043495724247,-5.6053792767364765,44.02550273511541
5.900595027567753,2.839379304841588,11.7172276020842
8.524915358755168,6.459912710523935,16.63260591266933
-1.946256194544315,13.997553587289305,194.65336295377688
-4.059327018660434,-14.96662978024806,71.19434825068987
-2.2980777946730973,2.631761253239679,162.04881542661477
-1.2903524389190666,-2.1946541608513495,96.62197762866643
-9.141664142696994,8.071522143609204,41.66140008123027
-18.34309271598398,7.4102933849596555,81.25419455336282
0.7678612968622627,15.382536954327522,60.40550494021786
-1.5722388519802493,15.80005106388093,53.16122974042064
-6.265238373850799,16.842278575206358,162.6163279901478
10.748821392153818,14.944533975287374,24.95602037057896
3.2554514473219207,-1.20055773682996,31.263597450965698
-0.1683285477588801,0.5375779501870205,15.170027399651854
-13.66889861422293,8.78285862457752,67.63260636330854
-1.7101684839958038,-0.2555519202313752,111.54871238590451
5.343925099059835,-4.748076794681446,169.79741913464918
4.802346267970803,3.7592103027940653,62.27173894509255
-0.03290494561027142,-8.463702722261834,155.2118806795959
-11.567553935112612,15.890558498798269,139.40628547524048
7.598142710747464,0.9933254200896698,184.62360089848505
7.343610886027652,-2.2740427239277086,120.66464831788014
2.9687711992429024,-12.096609313152289,27.37657421123223
-11.586313428414208,-4.78403169820449,167.38026768890091
15.809521421307823,-7.83215358907318,28.57863383658874
-13.667680140679272,1.7772631925744857,192.35513946687354
9.042517495030099,6.515633206896081,161.34512591119326
16.836628565365018,10.354940627853836,117.75655234813584
9.352819924521105,-8.739476159707124,144.61944346291313
5.508061666481398,18.337728278918686,134.8735958764814
-1.7923408007501338,-13.5817073742528,175.75110402870752
-3.0712179227938505,6.137235421835844,198.02504399831594
3.462700512798835,3.549527077986889,104.90892267740158
7.698519865183963,-8.968533628678994,127.4883864740635
0.26295045371457015,19.873479853291098,105.58945045306794
-6.836034321362924,11.868703925238657,193.74001105218406
-0.10599075490072198,-1.3816816590118255,96.57359713812177
7.699895491099853,10.693501418270268,79.20157533563501
-1.5311690305255559,-10.926502885844481,0.6122847043202428
0.18178637734051903,-0.035463417371808845,4.548307869833024
1.1681226987106144,-7.054115293330132,106.58460435715578
-16.742132412873783,-1.7143330155406469,185.1864174962501
-5.39293598323731,-6.142559786269079,125.60766532601897
-0.15462980757441533,0.7377416917387519,36.67952664828047
-4.112604874404908,-0.2460487698601877,121.46162912668184
-15.933752471784452,-2.7465733233185188,28.387698418376694
4.414507168873178,-6.5829307780892625,192.4273683325837
0.5713703857790849,15.093166995326499,156.98172719419586
-2.007371157658843,5.468695840605481,46.714879149543954
6.260657179584439,9.67012815091512,110.08165787154238
0.18120801374760298,5.837527662135172,165.45675227849495
-1.1993592543031617,-1.4960359495034672,43.17731672137442
-10.721830324458509,-5.397171501948472,54.85559070220909
7.522647923662325,7.713028533059565,89.93814019972555
2.0007728020454323,0.5456796030167611,165.47106945207224
-12.164992768294178,3.782369292505187,169.40502529166113
-11.810465639856288,2.812238312833095,140.7055816268019
-8.368789505297848,2.700727715716015,5.994115183920212
1.0470695341058363,9.082326380421922,160.98820855128238
-4.6652429425830055,18.164519034874342,99.07584904582119
-5.661753586914585,-8.719974125117464,105.15697901766725
10.766421770023145,-12.152136523270205,172.07889532905375
9.16668677824987,-13.900695075544458,146.30149670950215
-0.11459688949011883,0.006694353389539227,87.1802934783211
-16.660907474365715,-2.0724576500645324,12.25916421390112
7.884222857112183,13.208694822142437,66.8066018906024
7.935739556649788,-17.667435799696023,153.27280861559402
5.210254068685218,-1.4578400930743296,115.02502716824993
-10.414931896906168,-4.768014224033962,77.50186425687811
0.2763984077421096,6.612567558065345,4.50337416091755
-0.6484082010826511,-14.705488888582234,199.01204900544292
-5.34929821355967,2.463075700322191,191.46016023931114
16.668578574885277,-7.119092071365233,152.83357939805407
-10.57777059311551,14.028828661990612,145.7032614878707
17.315749800832545,6.509957278231983,166.7857531437215
8.920759181494676,-4.37037649874986,122.96044281095769
1.3225359032287665,6.114458076354374,9.864451178172896
-0.39733954202979854,1.0259449136274308,194.3440691001959
-7.3469368536486055,2.978982284318597,148.04913347809386
-11.98011719508832,1.264528892235097,165.6161139002295
11.047492503940044,-14.179342071726284,132.14370213685896
2.4237816005689146,-6.760934329737857,178.5679128419482
-0.3073937034170371,-2.320956331830514,56.90299694855274
1.3206133118982455,-14.418297292466972,47.400203319006536
10.926498479227464,-5.519781695840894,166.85906089559444
-8.818260158516486,-15.911544001196058,46.441115169145505
-1.2163888571606805,14.076975058916855,51.63505883772892
9.884577361719314,-17.01413823382996,32.47424391629219
-0.9590102990856254,-5.628456051888331,120.27496284232792
-1.0364135701186716,-4.996789698913963,73.54922459535882
-4.1883530163092955,2.2907932007506115,129.04122176728328
-2.980762216791052,2.415628665396601,3.2708646500946736
-3.4358775823157943,-10.446227228867235,98.90981111678241
10.665826157330894,11.08737458368627,118.62511267750043
-11.041341753572416,3.45939801951749,77.93099646234928
0.4422388246517408,0.35784659303291577,78.08277254198298
-0.43921045177465395,1.5733494964682493,30.08641566507404
-1.567782554948923,-15.10982784978358,70.90936021413903
6.371707539988576,-3.807944630050589,3.341296190246368
10.894685869254353,5.784986806792913,30.415954654952838
5.278218366640971,6.931870784898592,145.55606193706782
-6.776753009728619,-0.1440319386184029,1.6379911973837924
0.6515346976260953,0.46310221033926735,125.99794645402453
-13.712788592120136,-0.03435352158849346,131.48637991045288
-2.818049932449174,0.20109233752875325,77.46170635253651
-4.880769579040342,-9.375761675019145,108.29651747208686
3.108933522892431,17.498276836744388,143.84308444900586
-13.243844724419109,1.8550883923543835,107.20977593747631
6.223940456947993,-1.8726601029633232,56.86436477257042
16.407491153031145,1.303156461644484,174.76491085067357
-4.867623232445487,-3.2767586294246076,197.47281501080863
3.3545580465722407,-7.391435297762742,84.65910287776512
1.0848560389494393,2.8526086807091797,19.091391472227738
8.108307455879276,14.761917150254419,25.454866792503395
0.6985894325990365,-0.13858517018262695,195.82073412488074
-0.1449035847057705,-17.831843059981466,59.18401177230963
-0.6843116520582088,4.335453580721041,179.301208517828
8.143986561029442,13.208544217448523,108.22993812303909
-5.383578612434181,5.35812843358188,13.80222948192904
-6.7956851202788044,-5.397265681504305,47.71877766508128
6.113681090575767,-12.741413215953676,189.39751653003847
-9.836778221930558,-8.23149759451409,44.85738548137246
-12.683465103829404,-1.0157538654613603,143.19994575960862
-14.640151031068172,0.2740671371692933,123.76750304487099
-0.9403033317054886,0.9772146713069904,117.22401058867405
-3.934757185410278,-8.43357214367441,120.0837270270818
0.7080696678160503,1.3431198918010137,10.130434896877084
10.494001154951958,-1.9908943855795167,75.28084038641687
0.37426912621353164,-0.5315761564536943,91.40709163557996
1.508830672125192,7.636637779702651,14.337206199532716
1.0112573044266353,7.303567156212322,66.30297259377937
0.17314995348439377,0.6192227014718249,76.01276610678617
-4.989629059299273,1.5025144363727296,171.99738916880918
-2.9109475470442194,3.1091769836099212,164.72350336651434
9.051030350751452,-10.209885257856238,192.4060828729885
-3.4979586042139528,-1.9875469057419717,183.56665495360645
5.247243410520182,10.543069719330926,32.30585724280384
-6.634148902188807,-3.526723966751698,56.757418870623155
-15.451790015779288,3.439361907175466,66.67379366333117
0.47757952645496254,-17.829392290771843,21.22774136113017
-11.151258575249065,9.14154388381707,5.059047730545552
-14.306181913131129,-9.296199075547552,51.575146121032134
-15.466269136188362,1.5361504383846096,167.17692240049703
-13.9388886284497,-1.1208340401479775,29.267413698867383
0.9066449047143967,0.7456477430129261,117.82565095781143
9.667192274805554,3.0247761070225136,10.135297470169036
-0.4965937033008024,-12.165774640691819,60.26844432918641
12.296471721380565,8.594210756025259,158.93760970209064
3.4997756832815297,0.18098732932760828,76.18906998906168
-7.795100163262159,11.02698468158442,32.70779845197538
7.733943217888776,2.235821209526853,174.45776073745344
2.8221904103001445,5.9790599029881735,119.33393557531562
-0.22561365341900963,-2.0463643114398415,182.16644452245686
17.95222345569229,-7.9023014636046405,148.80999465872918
2.420597207963129,14.535163393210285,24.001685051878162
-5.268408838353651,-2.27554172916826,29.819596649140777
-0.6570570824392417,-0.7147365082733995,26.130398797128862
-5.341023851622568,4.3140377232519445,153.16713199438863
1.389369756229256,-16.718367182893786,155.8911551830819
-1.824942618364117,14.881368048554615,169.42421771172604
-8.207031435518433,-6.9960562113952935,77.33937722940996
-16.58056511958805,-6.748423610879169,46.004214162997314
-4.987128074377478,18.535171817469458,11.496878896653717
2.6429281463134826,-3.3851964937392873,89.73234132971533
-14.536914666031251,-4.0185343430261815,63.165954921299885
0.43147405495426894,0.08124467203565545,186.68122825395275
3.3539840739147273,18.1009645599815,146.3092582869421
-14.146035356646992,2.7056171626086534,107.89733605197189
0.09725400651241364,1.2302904876434761,51.36371779156232
-0.42003524777144036,0.9621258368977033,102.50403597501985
15.462312243679209,-9.292475936241539,136.23228008398846
8.588884506663447,7.494968947076255,124.21108373010455
5.501765084978751,-14.9052362838874,69.35020938693523
8.40376944227419,3.5553882392584564,3.433190790587015
0.24017340210449845,0.10655078949263691,183.8427802431781
1.698594981964183,13.520724499990225,48.386112235061816
5.215871371298123,-2.594443307488925,172.2086044422465
3.2406449567007933,19.21248906563288,163.52606060862448
1.254506142413799,-2.2765935487020994,20.13673707060457
4.002614682154463,10.002975771587751,156.5476445925459
1.3689118957909077,19.133721212027908,24.040222359665787
-8.810098166626716,1.8195323198926758,9.497532199835579
-7.714621249272595,10.41249453867255,145.58055075394262
-16.98479557171435,-2.8472326523706393,107.04429895807681
1.364839245174466,-16.76608711710904,160.4862725361745
-10.603564857323473,-2.147554751623698,96.22684961387213
-14.627510707051249,-3.4256543691325407,84.60643134722712
0.893684843499353,-16.2915522583461,138.58045143096754
-2.1144559455524417,16.23013476129613,178.3797711126232
9.07678698223075,-3.8297074353992255,126.71089941606779
0.8714611566666675,-15.104936219953162,36.34248548771275
-2.9231991684162626,0.18800733763868313,166.96719760203854
-3.0951513895008658,-5.868173973487235,91.45523501620829
-11.950176058571547,-1.5827845146889796,160.0287561057544
-17.529942721698536,3.7310493136505025,155.64683326948827
0.6714547846285442,5.9559090869697,129.51767629936197
2.1731895952390863,-8.499315227028871,26.48893496093132
17.40379054116767,4.896459502022829,33.66801415881453
8.904255042100061,7.340481225310948,122.52019229086524
12.823879212448546,9.526403218098325,81.02310743944012
6.399003806895837,-7.050308219690983,130.33746133083645
-0.14921227388685096,-5.140566171770968,55.96082351038027
0.5462533648993654,-16.809100893448463,82.16886311346741
0.8209526965193275,-1.6390286048208793,184.11825407722736
-4.632207774700291,2.9825739147630883,81.01103018379891
1.4982376002283173,2.713208057565585,67.5067197596577
-1.5350693504915383,-4.382951129143294,172.30366120010322
-1.4194057471695636,-0.3619700621032893,51.204851209445756
3.682987213369323,-0.5245001984403472,47.91129009425021
5.565331041278269,-12.032862815503602,76.14785172095225
8.252820927354565,2.745714383869303,35.32975925603608
1.7510397377160525,-10.090374858231977,108.68462295886442
-5.379972639657408,-3.8593210470345842,44.46733670056244
8.081986356802803,-15.85049919372746,82.05588253961629
5.42382798750299,11.043634523313925,22.96126445016209
-1.4069661898904156,-4.1648359396171575,115.26459757549905
-4.9759779211777575,0.6313241885333655,188.83431240406253
15.602131132844207,4.157762315313335,36.08518650366372
-3.3348085082181465,10.816208320724177,41.31308928660593
11.883381042712308,-8.122790655440859,193.73589009680785
-4.734927042754968,10.2540728695821,147.59859101364435
4.240972650126039,14.968156973097017,13.376726663512306
-6.998292631499208,5.7011565081877125,115.70512926517729
13.452914347339902,8.342450729670247,178.8895188532388
10.105822977860809,0.3877626775697259,87.86459230351808
-3.8398619676705383,8.818636570338677,21.445722893611354
-17.064571087187982,-1.6631712312742948,36.39121572340278
4.508013966385306,-1.0434188756465235,196.51626863445887
13.7945487850532,-6.1835000777869125,199.66855291733407
-3.190089206817999,7.954409252867332,109.893519954835
-5.488587921819296,-4.126130251241435,124.39934029443569
5.899731069379299,5.03287279963213,172.0497835575048
-0.39298081969362697,7.902198304587128,34.33667833141247
1.940071286669977,-6.761891874354543,89.88488627691086
-1.0581003320138855,1.3473191232672943,182.23184120080018
6.0386865195892,-19.059245869340693,14.135869485432927
7.059270872372924,-6.546412009256769,4.89792719738551
-6.288951529102962,16.78683263733636,112.18696597930075
1.195334002998155,-2.1375482170639186,14.635593749071663
18.43760297506658,6.335810889746541,139.11721194070634
-11.4611606377263,3.007962021519271,157.76197606283938
-2.172234757106917,-1.717954199746485,6.3650260100658995
-12.719528850627341,-4.248963986649996,115.68008572981996
3.2599427779676597,-1.0852953632766802,42.13035240593375
0.08415264411852429,0.16698615768821676,163.00933258800848
12.237070640370305,9.558752181157772,68.37077417769177
5.080214727000279,4.297326188828403,0.5882633181553576
5.269084291878078,-18.46465511327852,43.671237724445724
5.9485966625912035,-10.577189414366831,113.92809261521822
-1.0593064522280609,-4.228555167835097,27.245253974726104
7.756653404621048,-5.57485443398207,85.13661390125826
7.270095031665688,12.384477440325979,69.15227339340801
1.9915214606066358,6.035210029891023,173.87259735605494
-0.3369109690262471,15.148944013330558,187.73224007393574
8.598296423137548,3.6162350472074936,76.73689852141638
-7.078138272820582,-14.140408159325613,5.842241386387448
12.394862661976614,-7.556262605545147,16.949841061946437
4.49983544046196,1.3248119533828566,146.34506025396698
-7.865387455740009,-13.371996774940476,197.71934720036217
4.4213632121989885,-2.1232245855606684,13.917063156315779
4.649034379480417,-2.310783962203338,97.96081684046234
-4.055424792888041,18.847750230131005,135.11701244303123
7.576887785854202,6.828281960887586,16.908228540617664
-4.821466655419631,-14.141749102779599,65.5531967192755
8.723456919375018,2.278236468075342,179.62795257979457
4.591204727804354,7.314856418987403,8.695649197959487
-5.474777532132581,7.975571716789179,59.63512466300263
-17.25274906461888,9.16924950930597,147.0835439798059
-16.90979876521803,-7.39475378815469,26.67088439758696
6.027076749860804,-8.738079475763522,65.99838763214483
2.750997964562231,-9.986124688190742,91.03584028638613
1.8114378595518916,0.802337372856344,91.62360276034971
2.298129103202542,1.5406635037529661,18.109844079507354
1.5646684816054448,-1.486920567768006,67.37556721176571
-10.768860590648016,14.582913332844681,154.5310596933268
-3.0345028544574912,-5.882851676610589,116.9311592645778
-3.0271425530708154,-18.39615305566862,172.90337059555333
1.8525419461867454,0.2971352421635718,146.8442987454792
15.432120227879336,-12.565242524481564,59.36873226680008
2.2645337616101786,0.6614293862758168,197.19375065513373
6.3602492483528765,-3.5670815746273146,152.1683440340268
-1.1808985503525635,1.3394221952124372,191.4763393908211
-17.422463996444456,5.96023892010909,22.176177337378444
-6.094764348772458,13.386218805546093,79.3007353642774
-2.810309676968272,12.531808328570172,24.95511253468099
6.091691283838784,-5.487317022564007,180.56383030274657
-5.7729568497145936,-0.950342103244699,144.73069919941474
2.8577724842620804,-18.501712794648594,100.93434006625088
-12.19823292467861,15.531592147469285,145.90465432603128
-13.608736293942817,-1.630668431948642,73.645748932221
-1.9429056019818414,5.184230746476592,47.72645833485352
-2.567308003295383,11.42992167071926,13.62254747018059
-9.789254024305306,4.600244616453444,38.22279124291315
16.8843308164623,-5.364736183628123,86.8121335825047
8.205672485926748,-8.6997974062892,88.21073868090907
-1.0472181705029218,-3.0793875866434917,114.19444843188111
-3.277112833955331,-16.523335368235017,42.02319571952604
3.758450098856369,7.4772019082736945,197.77804322774588
-1.2436087117996204,10.217398569128692,70.9691893318306
16.243725374517574,-5.098918903684694,193.92942423961927
6.702377526648142,16.389984492295863,157.2239827017151
-4.622403670927321,-7.852144372270985,43.94664341991228
4.779027182597682,-8.431941520238524,126.10095242982564
-0.15929063137577723,-0.3641388800996826,58.37248693668975
-7.736687491391391,-17.491507258512986,78.40162645385482
7.098196435141205,-0.32465018453519445,52.21053280521992
0.24660457063358449,-0.15360164820298428,5.978773434489337
-9.97448150751492,-12.275706730643755,148.805713154896
-4.797186961071909,-8.206871817667276,190.85888288871138
6.916447270176892,-1.6139457681303708,50.05701237915537
-4.0822364335303405,-5.341924963684279,71.02049528206695
18.173867578652388,1.3178282178731915,100.610788080321
4.049613718319438,17.919916578988282,126.60202366733304
-3.379638329579598,0.5858781977788726,155.44903749538892
-2.5036767393951025,-0.6051491685486048,30.134310144065402
5.518997400202171,-14.440650362443511,184.61134188435696
-18.68094907146792,3.1732534693560615,123.15339345594374
-8.050032299482927,-16.401731145949622,64.76402166173028
15.85418995183483,3.4021414759843993,92.2644738999551
6.5028418895191775,-1.9267064346647678,44.9329947574469
5.489733344223494,-17.298830012998117,9.792524141999493
-3.3734171685644987,13.745017915945503,47.429562245482
-2.3809139778919572,-0.6985552349355958,169.97524599697425
7.724732165409126,-0.0067355649784451655,183.994013524242
-9.707415005188205,-5.901111206035119,74.0382301503918
6.678747126239382,-5.413447232168075,135.12390521605658
-7.61393527939371,-7.910495110361655,121.21464150733799
-8.38909875472087,11.125369577118414,25.368098068883405
10.450143097842767,10.973857566134113,47.13599647637332
6.350633126618151,-3.048424401416082,76.46232950777649
-10.968236639191623,-16.078249536750103,163.78926869312934
-7.012186392449284,3.1124804871210054,132.54207245105528
10.673105866386008,1.5292383415779096,125.08186455018328
-16.818752412755742,-4.288092638975954,158.51519002861062
9.499058165694459,1.5596320191377282,37.553882436360155
-2.545067901990817,10.27988425283338,33.29135946425792
-3.304963650608423,-2.923287834036797,3.127143423274825
-3.9961275318142455,3.089411293830949,157.9183323903136
10.186869165478589,-1.602347387122002,195.47628122512972
1.0228291869531798,-3.2355531831181366,143.93054458452937
1.2262051701005305,7.957654610750183,122.1312948186554
-14.077482490186126,-6.316725849310665,191.92414701681025
16.69954088484011,-10.88201005133621,21.523235379321303
-3.3765499394316385,15.772463829464378,138.40455564556973
-10.737012219442716,-13.096763289399686,167.30469188728466
2.5259203667837165,-3.5811973452112134,10.649710519435596
3.2922216048757718,-0.6565225991428593,91.45750238463724
-10.528416442834954,3.558998730986273,61.87089204281928
15.676836270900539,2.546268602734551,17.57050972490568
-0.5524753883478358,9.563447179417786,112.5696515772329
-2.21716183038312,-1.0900160413651652,77.020942215139
0.17352226541977683,0.21132584405740495,185.31081143507427
-7.816755167792509,-6.079879925169095,185.21158893310502
-10.806236057762968,2.1730059191212865,173.82944947596118
-13.225203371581527,4.429341851235787,116.06129110357708
-6.067957325112612,1.6623381625327043,138.12771648229435
-4.1780263203644035,-4.941667598555516,68.61460844020519
-1.0693572582930178,-2.8708891503937095,146.37323366476423
2.90770569286202,1.21913607071463,188.59098896755643
-2.0192840365012295,1.8043253753998427,26.862793289065912
0.3013654900246742,-2.8512548391121384,156.91945676868534
-17.21786489213611,-9.950690254186352,40.61562102953262
3.9326693180121177,-1.4143590332467364,76.4924981088666
-1.5220036909746082,10.937158078872802,152.8534262690851
-1.511995251713457,10.331606669865698,30.642172502562627
0.10823996030755483,-4.6703333351610645,117.84989818483996
-8.645667345357976,11.615215172888812,108.20759013281788
-7.3410574816407275,-11.117867462591361,106.8590268062975
-6.353644893282297,-4.86940235546899,168.5739510718105
9.341302607842461,-8.90524202005562,131.43272099990452
-0.14177629963705565,-3.519989771867988,32.687179749529236
0.46922193742508733,0.05052230501473668,63.43438671567927
-0.9673844803770734,2.179815890143111,116.41829472284282
-5.675161714687379,8.226431244249166,155.6826666398504
-0.8765376390461528,13.583692076169708,60.325831107076766
-1.1240790365398898,-2.3384995650779254,67.13951410988794
-12.23260436283457,8.701216949850387,79.27812394097593
1.5905071130680855,-7.95052506482955,140.67666182640062
-10.589818522242208,-2.359072156961065,197.4061207957253
17.142283622972915,-8.358279644390985,55.0590231822383
-0.6490401581781825,-0.40447363007508325,111.68633211955672
5.609963647142775,-1.4295612876200356,190.4661787542197
16.756309625432962,-9.503704707258155,112.92266243308487
-4.200825025365506,-15.425383068251701,6.590653561369009
-12.97124587424101,-4.895259323217154,126.00656656799278
10.566665526695983,-12.429990898506775,47.942405228986516
-0.7375640436687082,-6.141423055330422,10.003684187866636
3.2133724108706083,10.3072294051048,156.69387951233807
0.01202654868205921,0.0753419361163029,132.4974947011379
-7.0822379153080215,-16.58145607618864,128.8511645441007
16.63624672856151,-3.8734047164714864,40.7121189350242
-4.4461277001946256,-0.627342419523764,145.7490290463947
0.6305381060982791,-2.4469452435760934,82.8369083651447
0.12062938433876046,-6.039084822953424,127.53451058859015
-3.710759616728673,7.5450033083244294,111.87107067121211
-0.03511355800896626,-19.713866590208266,82.57511309706925
1.919132097423946,-10.164421744251596,161.96241974939483
-17.955087781206654,-1.0876547063021638,60.97972383146457
0.5852475108623082,-2.8624188791170035,163.881981133361
-9.25265603240759,14.886454934732301,19.591980752058436
-7.48208909088818,-13.131827384697287,79.48998451145147
3.4754917055515278,7.187446529729338,25.48150872511148
-0.963896600786665,-1.7954042445699754,89.99277863026035
-4.510164884857914,-0.04975403405034324,50.53618263407132
7.608562206060614,1.3880639028757433,1.8620236926538691
-12.72605406431473,-1.554817153358107,39.41430067062805
-0.512934252703571,-1.1369691538113957,191.2997950958252
5.838300458073741,2.4727455625316974,143.80999348631306
-0.693810306158613,6.399600811697423,76.08362370729567
-13.210454357439945,2.6002560358780924,51.68545189692677
0.24225463993019142,-3.772590505206383,44.19073109071747
-4.487103918611767,1.0842806048470275,89.22539087472465
-0.5705971112188817,2.0741541684865483,191.24132588484366
-10.408196023573241,13.895863112569444,47.54586227909834
6.987027069155565,-2.089864246524837,141.4687880232582
-16.53958314429057,-8.335170850958209,78.96574642953644
-1.425201475179795,3.4019223856644194,50.33597180398031
7.951902938656589,-4.113522565077032,187.43692191440354
7.823455685667566,1.8926554954910766,36.463806603003476
16.058192838713317,10.375155932081977,193.56147044406129
5.831011782060137,4.280769704102557,123.52936887741916
-2.3284295149480316,-2.5184210984639965,180.48716053812913
8.754909038361728,-15.645411371542028,9.523855942221026
-0.06908402424477288,0.34727499226077096,107.9482385163954
-11.683558113447045,-1.7954307795558782,114.75695675259388
-0.7061151246049391,-1.7419452587912299,156.94600457345808
-6.691414447794689,8.74328349871291,133.13445837440588
-10.680815482016515,-1.0712470887128431,112.61782444128214
-8.674625057029466,0.9134364187170395,130.10320737234196
-1.1101721292833093,7.576633038681817,135.0806883723963
-14.203845604171523,7.315802428062859,192.72177569919154
5.994354881762893,-16.551247144119607,93.37079605173273
-10.672161797605508,-11.62538326413516,20.18394162657282
-1.3762007849124904,0.9765224512768629,189.19131737637372
-12.531437227965533,12.388183921875214,152.76831389419044
13.708111225573768,-2.953050306283087,65.33176957977832
-12.630484454560552,2.478630110326925,163.08989933195755
-1.0378894844543978,-14.56716136574625,134.28297882841127
-1.0330429135920158,7.187198364269777,64.29313547961233
-0.8854872924315728,0.7073678845867241,197.3938275740911
16.252868609016716,-8.712550258209344,171.0116672135365
9.954528047964214,-12.452277147722466,61.33736391777309
-1.9495712003553392,8.471598766473036,153.4355201292751
17.228773282007822,-8.126067294572113,57.05599153755083
-6.485326000228415,5.206991049357877,136.28089777139627
16.81986620194625,6.934026977911706,83.36009536573106
-4.14160699896829,-1.8319715491619624,193.83909952963086
-6.723000956001495,1.4264373616513857,11.240772049945203
-0.3438763830159467,-0.02224587948162291,48.61492262901945
-17.580860761658247,3.145188976671179,96.05079065816957
2.867929025645033,3.7438411710159034,72.2519654431301
7.378344022763539,-0.4032756670782667,185.0261567185839
1.564480726833932,10.182415143262498,36.94152288053647
-5.853154761355327,3.5252525234909022,153.22370070143958
-8.489341361690874,8.264345937319963,197.37140967320326
-0.8422783950355476,-1.6991239076451448,1.6147472366145
-15.8067336027444,9.902643545067505,57.71438476964315
-2.042417274866443,15.47692271083505,103.89337052993186
4.836579773417984,-6.154355035237628,21.18735500907274
0.07787580048020036,0.2952881160878144,86.15897975935358
-0.5665189833868461,1.080977171088954,42.26345394763806
-14.148837496851565,9.013285962007098,22.31423262040826
-3.467227596872758,-3.4914955204978404,70.95353156779294
6.139647254537634,-11.795436269715015,21.591248590239175
-5.445550389140986,0.35194832545733135,150.11979971865563
8.797387853535339,11.45573805063346,10.162282620429686
1.991406209862811,-0.13232271339992835,24.002267366067986
5.422717634505464,10.051260831504983,148.36395357049085
-13.649507481704253,-12.16150080649433,187.58345931670988
-14.774666830347863,5.85315227404672,117.76448431399808
-1.262464889487487,4.0374443447185415,136.09018995208766
-14.69255353558702,9.489262525102925,15.52882438173655
-16.954213474001385,-6.466290315633952,86.300222306623
1.2626169094875903,-13.259826628379384,165.1390523819902
-6.260293850444428,-2.6087147976296308,126.18447263956976
-0.0739976686035024,0.16524242190356805,189.98065721711583
11.186120554002434,-5.247104869705486,198.77059775955442
-10.778218478033338,15.800071671830086,117.81520132234857
-0.9839835969735512,10.366888272199786,125.25756330114257
-8.630039042552824,1.1786596223554056,189.91762686974113
-2.5080562540434923,-19.44073053310635,197.7484637738477
-3.1821938210173286,-14.029192523803204,70.62987933956914
4.286857681657954,-4.952298725758758,40.214753238775394
-10.593590082878166,2.487093271942117,3.538504572201129
5.414965334504671,2.72817589568238,196.844634252878
0.374780716247148,-2.4686848359186446,66.43078201275814
-3.996773151290066,-3.689095003595093,108.52487719908837
18.09282724033558,-4.256118174117158,103.60977140011055
-13.921116255404703,2.4625534894946255,144.35822236040957
5.043674654390838,3.2379246632202254,107.75598410524785
-1.1194967516658512,-0.8948398282398677,184.0694603059581
-14.581978041417598,-10.324379273392818,174.24896795033277
-12.428622189766665,-5.059932767139124,179.96929806561022
6.383843827047548,4.284880735610513,156.23381322006904
2.5391246405477794,-2.9844387270563355,101.08639442607617
-6.760460915998968,-10.181466629912302,49.00949078821852
-6.89379375691223,-10.016806100803679,78.47387747592404
-18.058467892076887,-7.586713296092182,152.56794013098184
12.063934436751195,0.5815248813816781,109.3283617336774
9.281206124867905,6.475961057623177,148.55596448329644
-12.479467514198406,11.472412850300724,198.06508922309226
1.7207565142859207,-1.9680037747608794,44.68557821460526
-4.732941727611298,5.753763778095067,92.05019036144368
0.666851900836917,-1.0889700809364096,45.033293201833644
5.31069205371774,-9.140906473135846,55.5531434052853
2.001543391841349,-2.382272753881571,109.94842127300844
17.246486845260133,6.610473892827907,63.074239813860004
1.7525981658589798,-12.091033181022462,50.17926133340913
11.791731917253056,-9.139483667785537,196.49582471141255
5.141824254238776,6.0069106047709955,148.1401894902755
3.7789769382716774,-3.1012573677676065,51.94327508152745
-7.920433221151594,14.14908139236646,102.25543803692598
0.021360738231726878,8.853695201479155,152.70016570976105
2.5883946219389697,-11.822971279997546,132.26160053076083
-10.00892166924124,1.4230179091397348,22.531088776190302
4.493929802259933,-9.242163858001495,102.68217467448693
5.706017922232293,-9.802628381944094,113.99730772307855
-2.977312622754643,-6.778841444174499,194.34587426127703
5.067619721273625,4.578946231363212,136.7137701037808
-5.854627441706003,14.320660866862942,193.38783494934708
-8.144282668508389,-0.5516166727066418,29.48443592623804
-0.13375836976247213,4.442813975555373,116.76779847069838
-0.019521216690298222,19.509193285429195,139.4476847726849
12.097583229922998,-4.51352907247567,141.2397341777761
-16.4171417043998,7.464277623320072,176.03293773660027
-11.168768072701427,15.389615615696055,134.13602734407573
-7.632526557193817,-0.5263266221900923,98.43389888425011
14.601379345107443,3.7604007270522573,113.6524584175264
3.939639031582092,7.686965058410148,78.89765727622984
5.092814527444173,1.773791276647414,72.2361664162302
14.421840652182187,-6.622188094072517,65.06663320853052
7.247431331846312,-7.238505821168537,115.91308479437097
9.773398629205968,9.725987108695962,144.2448809964583
-2.4308983470422043,-0.27934260123326843,70.54737824159977
-6.915981378318861,-10.145993232445425,140.0194620604194
11.299422925188605,-1.7480888583477003,21.23061714552015
-7.138105992777874,12.030538450757467,139.7392042962417
-12.638449589919203,-12.318163221712478,40.03334796958309
0.84734528974241,3.563059815264521,76.83311427248604
-9.267590323415698,-1.8235035836422242,152.04469784083784
-5.565066447157489,6.306542687186304,128.03903489245704
14.02918970021144,7.569550892994188,49.646137211846806
-18.34371191628337,-4.002710584100531,96.10104221650113
-15.767334544533684,-4.516816245303272,138.7078797512735
1.7100627073988828,7.027505572694462,72.4210945035371
-10.054499800878306,13.691676533433109,86.99537614256936
13.697577952558815,8.673888475143471,78.94795910512917
-6.562573205926005,5.017547149550922,77.84741039359614
3.5300028355154893,4.995444758885075,15.242650132036939
3.857035422145306,-10.288087422592262,5.889210556020852
-1.906236563601134,14.7514286133109,73.07557837831268
3.202855838249988,-1.485560606735985,10.31055272961523
-11.054790584679436,4.869797707973,56.83447969682898
3.496884642721787,7.063717435322773,54.47743780876881
-0.16624802095489452,4.281623345458147,51.94874483213931
12.133959240065927,-4.175038003138436,74.70910100476007
3.067641783652214,5.248335924551991,55.72305535791369
17.359728915863172,-8.364906030598927,118.37965295703032
-6.223393908907656,5.253266419322401,43.24529437322131
-10.196124726918539,7.386109151388025,199.10938792946934
13.53151925922338,5.78646705693701,60.46705340672802
4.550190952698479,2.9615573656416014,102.22336778277776
-0.6618009242389843,-0.4946400876899815,85.19117402926557
-2.535351442790533,0.24002278880793373,9.886989965851223
2.7688628750104,-15.270212474542635,87.16309329470712
-0.26702873632839225,-0.08098392512282272,40.16691265591821
-15.607064301382552,-2.306146198666147,104.24197480822033
12.816350842840531,0.13797828433263354,157.32621600044027
-7.289689691396191,-17.398402537725584,81.50676324358844
14.089001230911979,1.1391064050349056,12.45176564323458
0.3172310272470529,0.9386237226580386,198.14834295238134
-2.144280742108919,-5.7165891387503995,171.7728265861082
-8.934457734023914,-10.97105870466424,146.49745613920408
-14.29065398570823,-8.610610986748455,72.55986322292792
-3.8390269487998547,-3.490253070199074,30.75231505588738
-8.883572580221593,-1.5378281022652338,92.61337764788891
5.660652268670665,-10.939275451576048,196.28687143934172
-6.869262360900709,-4.448654858183449,155.37285621036312
-0.05250025718539131,0.05373396398792237,153.47823653341638
-2.3539760949615305,6.071186626130056,149.70079939006175
-12.325954763651168,15.56689359031773,8.188063204708062
-3.912959303162456,-16.44181732163729,99.55752317230358
0.1301665274325763,0.06695866383552347,78.48194349863009
-4.420269278912531,14.164009408515595,199.83496154156424
0.306444103910486,4.856195772347909,132.76224103010128
-6.602243817540758,-12.330238778181426,51.534188259965255
-6.642117114064245,6.1030354874817485,97.28460562681849
-7.05470662975866,-4.885433747193748,190.76289071057693
1.2139518917891796,-6.245231398989022,155.18756116152775
-3.073643155113422,-7.818710738856236,153.97263661042845
5.21479344409408,18.054413541442493,3.3771338364454007
-2.6551424187306476,-2.5342412980190243,117.61991389970667
-1.256080892485494,-2.0064955614005204,158.70489743166237
6.104998539231786,7.924239437998076,70.23495490853134
-1.813118928819864,3.00260617009856,103.71624665877623
2.280750476418021,8.308154618087249,69.72993398426877
-12.981215566549576,-4.1457064226360005,32.18579507001249
-4.660992155343083,2.9362718185318917,147.4883399661865
-12.960821399421238,10.70035060277878,80.27060830677783
0.41125665933424377,5.534218227864017,135.38491663975694
-6.190392087171139,-0.3006681321967453,20.64370827493054
0.9853941275594683,2.5037972467703904,75.38919449564519
2.134157626067542,7.742702479493884,161.3991831064271
-0.1155825428145753,0.40151744087482977,14.55398172416511
0.5566261959006918,2.491335029754578,161.50571612178277
0.1824747517491503,12.005917900076648,120.38782863717952
2.1131052178727447,-19.276334860065752,59.92861682743595
7.739151868357986,7.894745770387007,57.33175844267859
-2.735924412549602,3.2082072556636683,27.20686663953471
-9.844487751110048,0.9188139979013347,85.89504156686208
11.905982064378929,8.66521308630974,198.16453753980448
-1.670365275965982,19.818591057321694,151.39302476050705
-5.767645963477019,-10.22191872657571,135.30783675745062
-0.8033551677558125,2.32636461812361,152.0420138005715
9.359129021895406,14.939745120077472,123.51813980818291
19.493972889426605,2.6242658457728725,23.863103453814304
-11.59493263626525,-5.771810220141713,4.6255962273274775
4.004286070627858,-2.5796664746474827,63.15830047717268
7.20827149194042,0.13316018655820056,78.64431656870374
16.650293339348934,-4.746052123173624,22.395048555799125
0.7854905572605781,-6.452109066056914,133.0297995717774
3.9836375652056693,-13.698285790705272,155.33087154642672
2.155855986603184,-0.46344615015075036,175.67096989397334
11.236920344944272,-15.319378254137233,176.33864319199813
-3.5687943881107684,-12.986572034168185,82.07049368689712
1.3889296696823368,-0.4818040277860729,164.63572138165657
13.580018317985425,13.181452793423668,175.79637950739433
-3.6627907797271226,-10.229079915697968,99.91235250326254
0.7520879067466549,0.8966125011482761,16.648469896664643
-4.509660697947773,12.277060565579903,34.44336683912981
12.585925046521472,8.62760908537867,72.60113094727217
10.261246356567225,6.897023023308797,62.61464705319999
-6.32623179926114,-8.030209488587914,14.71328325978738
-7.886540300354616,5.075229464217659,198.76281551379282
-6.528957160875153,-1.691138309796365,95.5824245855223
10.311979873469296,16.29416786016068,52.82854057230013
-5.6805826443980125,-1.8491417547364892,7.498730598545866
0.4628473616685621,3.7244602555164437,67.78213478294661
-11.9564660053106,-3.4382633289600033,132.83541293626962
3.243753325350883,2.6320307694806098,87.6451102264087
6.916153622825602,4.7986551962025725,125.10672668002809
16.6525610494082,3.3844988431900873,144.26961187615314
-15.71998051275725,5.8209772219591835,118.08920161431813
14.003454157222627,8.01226639003527,126.35723943035771
5.1039887260141175,0.23840771752093773,84.29715361787554
1.462630143978451,-1.6598017022324627,16.619479782586133
6.588167107032286,0.43677514815332036,108.74690590689772
5.064524576291527,-12.197134278535255,19.55654303290453
-6.074729800472124,-8.483693906214516,146.97317467246572
13.088329916080447,8.576859975497726,2.7394935395377296
0.6448438074522428,1.9513281475650903,68.88733237958844
-13.845513239039956,-0.060018483796492036,136.05560437655546
6.227567110857122,17.185750272354486,43.18280912671679
-2.127721681053325,18.918612251284753,127.73812819980468
2.8034469301385148,-11.423861101183146,165.28901526464068
-2.703202008705838,5.7686808717060725,129.888250778068
4.480690027135487,-5.9400170407642445,199.18353872604925
-9.266693145771878,5.163489201483743,112.53421908207872
4.301669984212463,-8.121843361122243,197.2754973448249
-3.229857415049365,10.219562937819434,69.73274972659365
15.22160906582314,-3.312536678041655,99.35266587559421
-0.3324640732267779,-0.3479427983527984,191.4152921733887
-0.3622420846997956,2.081811733803493,195.83068774535445
-15.606312373452726,-8.87210423946268,172.73292650390553
2.280529327789147,-1.8671812705512811,52.57523601377729
12.60905806020524,-3.650763393780694,136.35597949401904
-4.245552375420799,-8.214242965893897,164.58307708732957
2.8264596128221173,0.3844330953632798,115.12109466937245
-1.1633691109822917,-5.684833044138193,89.00012469459242
-1.0349912290368661,-1.9887282509582267,3.564483027894405
-7.906689892937416,-11.627285720656923,116.00732294183543
-8.117937796778753,-3.149910795280461,99.23511982715449
-0.680913290443862,-1.0242890230689203,1.6007612277874506
-11.69628929240807,-1.5652741088196198,106.81329385625268
-1.2540428228990839,4.012801114184607,13.326234194442833
-8.338046352140974,7.040895851001731,139.00682867524498
1.9437834158860585,-19.630856271085914,194.53940327979097
17.99895356602109,6.200394866447043,122.24121350182105
-12.891003070972737,13.563544007143893,143.1823031005929
2.8543438438146143,6.577830020403755,189.0741130647717
-11.32019745681513,-0.004908092478569025,46.14998146095712
-3.050592802124883,-2.295545463147314,20.227743952223577
-0.43173491924757684,-2.144455980754883,39.844592836693614
-4.120643088624424,1.619583054717819,171.64920718400137
-6.76175217107377,-6.258961046732698,77.99942040867786
-3.4293310152553,5.183818906760949,79.65313026767511
-0.24873665590986757,0.2633012562660786,11.87317403216328
2.2611002740008925,0.43062175825082016,88.23996573658096
-5.377696056219499,16.662404581525717,16.29222865504234
-11.258003658446253,-7.325351193323956,14.55392368098627
0.33623902800743305,-2.140224095159109,155.24345003179155
0.13293136073897927,-6.027994144189165,99.63226895648675
0.15132779603326277,-11.182555086228122,33.43226578528294
-1.1573983048543073,-1.898437654401457,94.54301109618409
-17.183279013493955,-9.720437054888182,155.1193801651194
-7.845214493759585,0.1208380837664979,133.40367835512347
-0.7804315889085274,1.7570959432829214,37.16041406659431
2.0977288142946713,9.935493994945475,137.36534021278348
-1.680122700426335,-16.498239430745272,125.59187951054471
-2.0283645897612974,-4.2914875874776675,107.22116033382278
13.714510207479588,7.41253288546944,103.66565979424804
5.800186008179009,2.6417856799634793,58.91568623508556
2.98168968065864,7.927247116242565,98.22148692815938
-14.407195493178854,-2.5773221956131125,113.09051694222107
-2.2302261304483104,-6.7960680088344505,68.13217018095865
-0.17927574938526214,-0.8756186759517912,168.15896879609994
0.047724850192623264,-0.1349720951804444,90.52819944076025
-4.654698838557018,0.36128629417320496,27.773553165507625
-8.995569827153174,14.834612760662012,39.95229880647892
10.295971637824573,15.695460970563737,58.60572807459472
3.6904071240353975,6.084997256138514,115.61741916491366
-0.9021464725531173,-1.0317711127930167,23.395894027846275
-15.61696846566202,5.5007245736416435,191.30963297649822
-5.093203726141157,-4.942149124233625,35.42202677178319
12.568602885977395,-11.457116313315653,154.15415170576466
-17.313484186413636,2.7131725506379802,72.43604999214242
0.37410976933436835,-0.3309945681020338,135.78931279150606
1.406293178085866,14.037969446864,173.66317986092486
0.17389946391963193,-0.05328551047189385,39.59920716488998
-4.1755611824470344,8.388601817879865,97.0650739539209
-11.713342983094218,-11.173466655831573,7.814579552908074
4.646090517017689,1.0028551673401884,92.99524875701462
11.892749644453717,-8.91936208572338,89.31142862448922
-8.918091442352612,4.530724578443091,187.99239355399877
8.541493229235869,-13.405666682014438,140.75277263091616
-1.9717561123967668,6.394071850611165,7.625781802286369
17.00825737064522,-4.370332610458819,16.118484525324362
-1.4580705664914346,-1.2888073013600796,8.751397614766976
-4.735005253366494,0.8729593886751053,84.05226685798635
-7.347877963701547,-3.367786124992177,181.82857710468323
-5.440909295090545,6.7853877266327185,75.48524528326388
-11.466219531810689,-8.945784363834957,124.42499996537437
-16.74320779652862,-10.138875833906337,190.95406484709417
1.524981211240781,-2.7728214587800735,118.68272311725958
-1.927769321717487,4.805243810375181,174.60802706800735
-7.418556429404026,-13.694338199741313,5.043880582857807
4.030759420863085,-6.154418752585352,116.46744833611145
8.584820189450538,15.641778583970417,181.88966525767916
12.57294699263092,6.498889977003648,193.59438558164905
-14.95668301617714,5.40602183920745,155.30175562969947
8.054348412195086,-17.566658980121186,165.20165845017814
-10.386538771401332,-5.83946554970831,166.63046533757662
12.617035433068455,9.629460600401233,166.59996864827855
2.1615171067071164,19.142092540810378,60.784748329562774
12.077039164668307,7.378683808784204,58.45290679356252
12.64994063945056,-9.307665408819796,73.34609073540759
13.001314874251367,7.577563502709746,35.72816391771734
7.834142057336329,11.35295442535164,125.56802344276521
-19.24721450975447,-4.735407673075193,138.2381522519185
-3.9816139299891753,19.248769033800162,11.358568419551428
1.7989931019016303,2.7422867989450372,160.96486477634627
4.491155803316635,-9.561203835715455,103.42396084362997
-6.055267135811791,0.009998191002078449,67.52882709281005
-4.619765383995886,7.359435459445369,177.44591367801132
-4.3282574986137945,2.5956136094851554,26.954385245066103
4.81428231652768,4.618024583546672,188.72706091564046
15.432313042358254,-6.343613530949286,93.81846809086211
-0.04644028620923489,0.09130823112492095,11.842755327209286
-3.8111065736561294,-1.3877690049136793,60.43095273701358
-2.310132259627398,-6.2953648096356565,136.99301105861588
-7.361961080435495,-1.9532826495132367,40.03819333421808
-3.172240052372858,-1.399992473189215,105.5477982832991
-0.8316923342223327,2.2616899148579894,151.32768150664663
-3.617575084045427,8.696378609980137,89.80549345241558
3.019459560372169,5.312572183793042,180.06243595306725
-0.8743943587117822,9.700587213087935,121.82599814881499
17.076848157700674,2.773686625405089,147.93723796814012
-2.56060445537301,0.37291459667064786,94.30290397579802
-7.101140014803334,13.267870972054723,67.2760132888441
10.465954271217475,-7.167389885360561,162.77310232071397
-4.11980105901805,-4.662490746116776,179.63180003064937
-1.5335118807173616,2.0551365212003128,125.94951852394726
-2.503959675476772,-9.964437974445765,80.33841721062778
-2.3739411281109746,-4.626439063236694,153.43961403008416
-0.3506792354555857,-14.426920731269625,156.4167979871145
2.1335110271593267,3.2228641788671863,50.74354029507209
6.292021658073292,16.748243264007993,188.74020735075715
-12.143461568932734,-12.146186857644468,36.049191260693505
9.621688206540542,-4.112455144598578,192.54128460601362
-10.777374857915108,5.09306932018657,144.45559741554283
-1.6183254815265695,-4.24053099322405,186.95814008852247
-5.609990674573085,-8.56704907142875,105.22971532309109
3.044628815357267,-0.2502670167027752,107.74834849182665
4.879057220552082,-13.971935288024996,82.48898163181306
9.135191947143227,-17.561436514984347,39.73296768875392
1.135998688217283,1.8053776806286759,0.8348327406016542
-8.020002206468579,-14.687564907801102,163.43653893773026
1.4974932040335436,-11.571140352667392,128.10650322997836
-5.252877520403232,0.05226652358177868,11.129944114141143
-1.5620139236296442,-11.72931777319243,43.01693575464791
-1.1912403518447137,-3.9279002913846273,55.92492685833235
-8.840052125287796,-5.992840431718474,116.53469456858035
-14.524790551932446,1.5221286918180736,11.911940640259754
6.364798185375425,-4.871824633249438,7.652295476223725
-10.345214482021104,-14.588919437661545,125.64901332169345
4.063377076334758,-4.436980401118205,47.90819980364054
4.31484652720091,-9.787943267547767,161.97278187176315
11.178004117886408,-7.534367304259504,11.968224264240956
-5.522661886617047,-6.558331359643813,82.13113272915946
2.939798158868406,18.074459219967636,97.28814839964643
-4.245816396157065,13.466838644315942,156.1335137496934
2.360824244810244,8.430932384002665,25.642224746728502
-4.8299279320502215,3.986207413045518,52.07666075780881
5.803236917517766,-1.08512728120527,106.41228977197581
-14.95418018793304,3.560352823871648,55.10459921300681
15.460748108815741,10.113880062764302,46.835813732777474
7.394132579088622,7.6272427951807655,63.315087861719135
-0.10040587405099419,0.1175223297248408,3.3465017653818707
-12.829717401144562,12.46911886551157,18.37755651101802
-7.239837366983373,-4.338181533094261,8.196321751675018
-19.746538297664554,-0.7301276281859602,6.409660852966281
4.596961308301263,0.6363356765884026,107.66917523303503
12.052430742334451,10.75556951616419,176.0968127912731
-1.9487573665295221,1.0019881957591694,177.44190683994623
8.248868155503947,10.73409494001668,158.3881026602944
-10.47266383649544,-7.129000774060353,94.3410441741889
6.6866776949689894,-1.157307257402204,157.6548999374857
-1.6375356562491723,-18.63359903576919,173.07509877176835
16.400808021861003,4.478888813977706,32.638823669944884
-10.914054186480396,0.8401230251793597,120.20197622126423
-8.474580859293871,3.5456656225637846,153.35432942436705
4.651276984600783,-2.9282227386498523,78.74390862830984
-1.5085901295823914,19.64413343721123,117.50726661394128
-3.2478601691052926,-9.736768861020835,50.288463623222945
-16.939924735222124,2.0877426674991666,76.53206680469451
-1.1268977408196141,19.119630557476682,99.1084374608464
14.255301891910854,-9.09760999701343,110.89040423640162
0.3057387780249866,3.3836082997792833,195.3685216553193
-9.973095133374095,-7.925078600248382,138.6643325510745
2.98641388178182,2.0539260383680933,158.77634764108
-4.565005166641028,-16.277462461681814,23.096254586758658
-8.326698260784582,-17.615908518134543,158.44513166447274
-0.19123967114164145,-5.800127612829438,125.0776231358761
0.49844533633971033,-3.22725121346171,192.0689965015471
5.1856464730761225,9.010572719097217,43.872927161346055
7.659783121661931,-17.281041256432225,23.42969488061406
-5.292923645919878,2.934844257847272,81.55520266918398
14.356383150489494,3.348282496763672,139.33096512788242
15.28131487964787,5.26528251267544,53.074483985291266
-0.8620658668674376,11.8554157014171,52.51567399541279
-7.462796031389446,2.7242698767883917,48.787001377517946
2.6421177346745437,8.539251528716662,116.19793895773954
-1.9782299715712564,-19.347617865341082,48.997475879789
0.07550017234281738,-0.23276301599814675,168.11844960842623
1.6693538492537991,-2.1708887280611724,155.14985055595778
