-18.480673718738682,3.3325597289734907,124.45166584137075
7.7716310644396875,-8.277316202306665,180.751549503653
0.5519342859078102,1.8955974813494052,102.3376925034553
2.998858944777502,-12.28758669753072,37.08255107185361
18.8474188810485,-3.236535718880734,108.15008227416017
5.029045840535066,4.05687115451181,147.2936176505812
4.005290713324301,0.5490801514497958,10.597039520934693
-12.618621901155606,5.684685459861642,17.83788482673416
4.927581441853897,18.21984190726202,50.68038028402615
-0.15632627427025497,-8.420371196951367,53.07669300293101
9.060728917031005,-7.090996665374461,61.0466299942221
-4.794782976201312,3.0188666531973474,161.29459235954957
-5.510195738646023,2.8735231269234336,197.9753993120412
-0.1870739821014045,0.35721448609190454,153.94165738751911
2.5691489661096423,2.2490616717851033,150.72908778061802
-6.804195260697964,7.41301005647624,64.65327597240335
-17.956090764765417,-0.6139058900164159,64.25644365162393
-11.50062144720042,8.810711145809293,193.73692635588958
1.322593833127918,-6.848033740815343,144.47689168277049
-16.4085676758953,-10.31573394978088,160.82337189193396
15.69832791251304,-0.40919841444269683,79.67579827749431
5.92874669383493,-10.147288446180553,149.78310714356107
-19.293794232335728,-0.41251887168731854,30.177403329504827
4.9157333024753616,0.6938183311584953,89.0196892448667
-0.34072374879920597,-4.83894350045644,170.0053338614056
0.4574207961780904,7.744823073773373,6.61330926889756
1.0104589236318462,-1.1642509535744994,50.95503069312905
-8.403369516673235,2.3772649516165396,72.50260646424496
-0.19529381934549556,3.946499213747779,179.2325925381911
-9.409780962527439,11.745602663972164,57.72801821956974
14.782190684439529,-8.312278937034145,91.78574357472233
13.675767056967098,8.808774376690758,65.42026495676507
11.980195948545997,-13.923890619759964,20.213230755963462
-7.171858026595648,-4.073188781411673,85.62951845534377
-12.130276619098778,5.146389390788668,50.07077508501831
9.97563157624899,1.0404305427952212,151.83112627324428
-9.843634864997147,-1.2098445484642029,11.495062168129255
16.15621271761331,4.421093452542692,181.49872283098046
14.911817618837556,-1.7579155661352326,139.8602240209479
1.6621627550229543,1.7649322031652306,7.848106751034467
1.2263550013866198,-0.07983339859110998,67.84438204646936
-4.741805319284753,12.165376244903012,89.24514841221021
-4.643253324066557,15.62352884346625,23.22378317497005
1.0538569210212878,0.8077286013328943,15.907256409012781
-12.8736043408758,12.609571021237723,108.99932179278014
-11.753725607587162,12.334393308705236,54.08211528397864
-11.659895385163708,-4.304193738720596,130.21852920287108
9.583678884137617,-8.705728884626783,28.832582109826042
-9.415987206541288,-12.0351025302376,15.957944328846473
0.4593937404918694,-15.096598253000924,107.76581826338992
3.6852441398928515,-15.939561079425179,140.70617719119883
12.458994689061855,-11.006814074741552,186.57280743821417
0.5078365891297866,1.6996610122384093,121.73534007149595
2.7669498856357184,-4.270043519222805,177.40361770805526
-1.9932690174742902,-13.133661641492328,110.4359116036661
-5.038443545560312,-12.912132230108979,67.79689543201354
-0.729982939756242,-0.22085186690849498,168.88836478838084
13.788970637955243,1.3510881799081484,19.914281465669248
-0.06706270605208024,0.02581588000487264,106.31699720963684
-0.4446154695397053,-1.404068997924107,184.14852816589612
5.215681486565622,-14.235705491839866,9.829559804361775
14.422602010178279,12.787027008390192,49.803196417726035
7.829734279033642,-8.773582801981835,58.4216689826387
-8.044728475944531,5.111031791840582,59.97747326254894
-16.72447499726472,-8.37419476472893,49.72202902014333
12.663506163850546,14.77620781777662,186.81465646950195
9.36021608376248,-2.4747410743343576,34.403652888836135
-13.554319407359822,1.9134931689325523,161.58142559823344
-0.17774941660635799,1.9335455378401725,144.28113768356107
4.749645084140961,-8.808899238605592,195.40855688502626
0.3898996616573691,-2.0769404853210056,107.21690678040675
10.554984381444772,14.590606303658776,167.1761823645909
0.6532779050992849,-0.7590960671994397,171.8490561903411
6.63703439783621,-11.887790105204546,123.05490681701762
-10.20914060175987,-10.346944770763038,89.57242008821747
-14.807141242678286,-5.623386315574277,2.564353109252715
14.396887916270163,-0.14523840769380425,63.178293245115654
-1.0645520925098624,-0.36512494493392617,115.78964678162332
6.6362855814802995,-11.054775796732596,161.5540029429099
12.43040629023547,-10.393969938178422,16.943630285526325
5.522640879761708,-15.445662071947064,180.08683143922292
-7.673757628051922,1.2751322796155857,56.4673355609403
3.8745393536470374,9.317028356962775,22.472474885527216
-4.982332200913854,1.6648459586606295,181.74058571464792
1.6387292363604749,-2.819758760308966,168.08469945255663
1.231729023604616,-1.5044962950018226,15.107915891531686
-12.702558216850822,0.04797082501166339,46.9751209847469
-8.49036526459535,-4.4279607855596534,26.9348407748764
-2.6634018718642003,-2.6042859515650782,93.45907440239938
5.699880422278764,-14.437128962998992,179.30052860632048
-2.1744378621098184,2.792643002287071,128.3616185305119
-6.056702007256252,-2.5156256545735594,72.65105148541558
5.450579992795237,-2.919426534453576,122.33578257473745
7.812546652861674,-3.021857086768594,161.90899333446507
6.589311548647254,-10.007384988617192,129.6917738766876
-1.0940959622972484,-0.8361717251123573,112.51618031778044
-7.011543446209858,-1.2858870776195168,115.50096740837783
-4.482985725362942,0.043153061725913336,117.21380542819003
-0.2005148613113988,-0.007896674448952283,59.158256335959635
-4.813631725643177,-3.451953916399702,162.21257542019137
7.609377354960413,6.740971011161708,50.92634754589109
-5.7186415143699545,-0.01591939865488885,47.7060640478153
2.1941442189023226,-1.3636370195832814,79.95590824038266
-6.264381863018944,-12.872786071730658,66.5173756840975
-1.4155410331828897,-5.916040967873474,199.95436579056167
7.794361000131673,-9.908867740725075,139.02582976296156
-3.4419770392017317,-5.941916953231808,83.99594834710022
2.0280476394071787,-9.72659475941263,91.97190185324237
-7.285620009732093,-10.43617497113203,0.5897417325665177
5.266291643687666,-3.032549617749218,154.75772316573742
0.6685826141037053,0.28861271984319087,63.384508217476345
9.276740060411429,-3.3774892713970437,92.29105291394562
-0.18862513889503002,0.6818911457968959,156.3602738399682
10.620527964196237,3.22945621228111,20.592317725002452
-1.5924527653497142,-2.1168668681567695,179.9052562303993
-7.603036015016888,18.115175938417387,12.245793160276076
2.2711922761979184,-8.527827903141663,59.502671427637296
-5.1461723790580365,3.4839396938904845,195.8722802663826
-9.760771603472199,-6.315921996358544,103.18876922661968
1.5183971629342439,-4.904334218377715,198.30877251576
2.794296148713171,1.7163364707124695,42.54531747380425
-7.40126111416562,-9.174640840453046,136.34411287419414
8.112457674201217,-5.8446284944211655,123.00869071800258
-4.077403348632351,-6.570841905904815,113.8001727250839
-7.206752157097831,-1.454119958639889,13.431391227003076
-16.4706241491585,1.5226076606281773,169.2149240032373
-14.42044724578287,-12.26960289285506,52.89826911518123
-1.6044210617481574,0.7878172197358522,164.76169466482608
-1.9604660095611965,0.37584285118213157,119.56814467745632
2.097516922644224,-10.124088445066802,160.61868967669056
5.006821814558568,12.733731905755294,179.751280447077
-13.712484914313576,-12.555653365620612,110.08941392776536
5.541410897185457,16.93295514417209,14.138762764432311
-8.347091028941037,1.1298565246402588,5.038955293811176
6.120546092530207,7.312716531211222,68.78953096414482
-9.012310205748303,7.013772981180554,26.02560129946154
10.509688538457809,10.957576895499304,39.48820793078891
-14.826468970873819,9.88898149033987,143.67192874611808
-1.5941277494275516,10.788514288969065,94.28629358190008
9.90753989262072,-12.983767303059013,137.93428741876332
-7.893110900882334,-11.296383090184106,95.33263154396016
-11.141363185472898,0.13637158300556518,12.604690167499788
1.8674176348817684,5.101363013632988,128.83591299149572
0.46336267473811443,0.4025149401959543,68.33674069030036
0.5013279944366061,0.4255334420534565,48.749331739053936
9.389691041936755,1.0889093217929964,147.23200985949777
-18.095613521217615,-4.678355303549692,145.8047497516626
-0.5351340548132955,-1.134486717548292,152.63879746621296
-13.835030366026633,5.71148352558359,9.028542615437441
-0.8969386904235875,-6.384435675080957,123.49184323316953
-2.2822543386973173,9.707751905439972,34.4103246191851
4.193908041304137,10.483499138640479,88.93197634007473
-1.0085031334546186,-1.966573801677311,119.95163108432669
-8.300850325466136,-7.4514874328474745,101.53813530330467
-7.683644836485558,3.1686316429735637,67.72850368663124
-7.889563300995098,4.612838983713615,45.753460624177755
-5.621601139438545,-7.769765159919127,30.94342789371385
-11.501020852139995,4.216887870823341,110.40088682294862
0.8594365930083376,-8.797523656267376,34.79958023571918
-1.9101366318850914,-2.4453378467989775,70.65171503454133
1.0830580099407752,-2.6772488262544036,160.47142631028348
-8.942987700045766,-9.966462277086208,110.24049673617402
-9.273522866055236,17.006300002367865,79.08722062162836
-0.46820110556548983,-4.114292146911053,131.2308499726805
-0.736083623196443,14.498841084698999,185.15146516422968
-8.414206772218984,7.644661776743384,126.38406684014352
-9.68666553301341,-10.931146176721533,96.2516213726031
9.152518429182463,-1.4587787248660822,117.80311531689176
-13.525707705939372,7.0855568261488155,126.21370134781849
16.39891412400064,-3.3979439634068433,88.89105752191129
-4.38673081517749,5.4432558670150275,88.61950009482776
-1.479036449714052,7.983920576947453,4.485878332809978
-0.5930335434678135,3.8261240328757498,160.21446713759485
7.17490745425887,6.8641304612201015,99.6640324779015
-2.4243473973251293,-1.1138245185994624,28.29779216825934
-1.55503971907442,19.736331021242663,148.11709506747422
1.4618766631471214,4.943689582721282,16.496439470002056
1.555425296984329,-18.941581345746346,55.828148728073046
4.785432434363235,-13.166884408300973,70.17823531113076
2.1911822103197887,0.5745809418514009,23.03043199120294
-0.4174554832585486,-4.573505743260891,15.125188456447948
5.874631595328226,-9.741739376424992,196.798919242835
-11.058436367420468,14.159341361002609,62.10488354820269
-0.9132636019541925,7.179752197531048,22.256909620316122
1.9687352693843618,-2.532972584472178,93.02152426969317
0.7384859325164811,-1.023810002862854,73.01713448131744
0.7989772955609135,-1.0477275420525212,165.139419304442
12.815298551499126,-11.264263735137817,120.63851843960265
4.3687544608513065,0.1635656068908857,126.1275098955379
14.142251679174787,-9.589730195544789,96.87689522031701
-0.4437246555808959,-0.37627717506846314,21.668795804212436
2.0967103567173075,-2.1605160706762305,96.61231539656785
0.5940395563951212,-0.30616163220836845,111.12604657087411
-3.9468745318918677,10.000482245602344,181.22344068095688
7.8315845454089255,-2.9508699064718438,63.40040300214884
-18.11393833442376,4.768389067573122,33.47298366529565
11.739552716382104,13.89609092898714,95.51554255567964
2.140307517962604,-14.618354561654183,38.51518761819068
16.577677940357635,7.636295553199578,83.11996643747104
-13.817530271162621,8.941067825833535,193.8910379157869
-1.1107032223534197,-1.591521094488875,49.327350231492396
-8.080841423437352,2.5511066891624004,101.90790336269484
2.451201339129038,3.533339216842092,111.21634621386525
3.623491430193269,-5.1266211122991265,65.47261224548315
16.68546966831674,7.052977752315846,97.58461593306924
-3.0302816157964156,1.3467335475148337,119.20913182457298
3.1262067588245874,5.373874965595484,156.30969072884884
2.321939794730676,-5.6721672348677235,66.47742573298395
-18.0365319400339,2.9525549403624303,16.089561967697886
-0.6213192932313681,-4.638997215484735,185.16392325515386
9.211275880719805,-10.78120271387509,32.697268465166985
10.191109531184926,13.716809879206231,152.42605433252712
19.1211475687247,-4.384765616350775,181.3776671029077
-10.737465212213529,-14.976059402186966,176.01947348344365
-2.5127581067949314,-0.8621248740952121,137.78920203241464
0.3945487091619371,-0.6847395682856248,161.68565109809006
1.4627415666485881,-4.244456522512219,65.14290715890967
-14.298863372818998,5.620629716076806,66.26785073170112
10.191893567662655,-1.9426095475656726,53.61546874009762
11.160973436937132,7.941182775901069,178.51147203055996
8.332028807627127,11.888049151572938,35.43899345281083
-2.115823957968489,-2.429535689319563,149.65389312486352
6.853856053764347,-11.812057783248676,167.006969298132
-7.471857498050451,9.602480399654722,122.87780704695366
-2.7900874307470747,0.8280458664762118,136.60523213953374
2.2785899576573256,-2.079351426097238,33.8241597494318
9.352325663264303,-5.159357889789099,179.09900487167033
2.653187896421668,-5.445334015208014,11.53505659981171
-17.19114772560423,0.06158640579448327,15.553858114527387
12.245298888578674,6.423874216652491,106.28798648251549
7.511970194261574,-5.596472029004432,133.85630356714475
-9.28465407597546,12.771753008313185,177.89933025502287
8.803765318237847,-12.92956670234087,86.58387050921215
-11.458990300474596,0.29820799870833203,56.2351732452679
-3.1459432045252713,18.821547230917677,27.200059898828655
4.778259927825992,-0.33722038419793826,61.346138777908536
1.3621038775554057,-0.4398271525990839,38.14282651265726
-0.24490862520941595,-0.032516532886875955,58.194431467598505
-4.617224974886322,5.9588469620473035,61.34281285828387
-2.332344674674498,13.752480957650299,156.86266210921445
-0.5005311382910194,6.744770444533269,78.21452688983746
-1.1298104968160096,0.40008695367515684,171.24131918618403
-1.9247758976894296,0.39200188793680507,77.35380709139432
-6.897528685923023,5.5868520530228265,159.2046270697459
13.800012234092122,11.678450154026141,192.55635688023062
-3.0908204558675356,13.807249166550317,181.79669531464387
-15.152428069332855,1.8795210985054027,38.61231617656933
-2.4703203103124003,5.959803224506277,171.98065140309507
17.888036223705523,0.005516692537499419,160.44253032982348
1.3797693800390929,-6.2224085131287845,167.19717089749685
-0.5374616875874433,-8.261570614594435,122.77071239152535
5.880954219150745,-4.9649391676405665,158.30518400813082
-7.318670438970012,8.972820576424775,93.35102918125284
6.124920955149553,0.5753051517247282,150.24748146942082
-2.2806684718875285,8.690320566466996,140.6788481139148
-15.4794236194287,-0.3362429313506034,96.57495767595154
0.3136159098609861,-0.043959771312911074,48.0477289633195
-1.078903743160735,-15.110504735969904,75.8160482435682
3.5093411054198063,-1.7087825971477921,51.420071072752904
-1.836601868008327,-2.3884666380887616,38.56077958819846
2.8493020657517447,3.7885640120821256,5.936924575981117
11.191301767955716,-5.136329619827309,173.84643385103024
3.008085112469271,6.111784246095814,118.00734361243263
-0.9260241118641551,1.848705514027615,74.60969587259791
5.8675968678610095,-14.331645404837582,80.88004681036334
-0.6724160917718427,-0.8516142598012164,126.36864804210406
-7.042621284297896,-2.8435629480890703,116.90225968098129
2.986066134829795,-0.6759531872994224,162.17461842038762
6.186614613148665,0.8804025423730445,89.78879550807561
-3.049526837320848,12.506410057100576,113.52939151262053
1.3293094467297848,-0.6173869095827054,125.20590241832605
0.20004874843748377,-16.986352561609678,188.50823220219962
-17.039012381678802,0.23231656760995154,9.673015559097632
-1.3168820509362194,1.2864032272748473,193.2045061412059
16.69110287920525,-7.887100616179225,199.95843264514608
4.151305834496098,17.42535635261939,199.29069206183925
-13.194996967473681,-5.324683431213491,111.55572021192609
10.279146275726044,-0.042914186130215914,177.85143320897134
5.467573737156153,-4.052495111691088,8.986588013821152
3.6237953436766883,2.8257334340207643,145.15554975179518
6.5125194292068285,5.825798303348995,181.3096599977793
2.440334601975164,0.23817792473152755,91.15888244198955
-10.066966419216152,-9.836362462966765,114.86008336491554
0.12002179599996485,1.143804816683818,72.49906037532932
0.40227672749931576,-4.409864732849727,194.02277646435678
-3.7956689586823313,7.937139148294776,54.04186455778219
0.19867343272904045,-15.550122666952547,89.1178399850617
11.556895500947743,-0.22298055068649858,168.20500654968285
-9.026827105926312,-10.5540246533123,7.697712091995612
1.7393505763153345,17.60255575294166,166.72165073705284
-10.65194769744158,6.507658298510233,122.36284506278
-7.8190801374224606,-13.764363405661411,171.85451452370452
-1.3403868453172676,18.573207654438132,62.2002672952594
-2.2897031511951353,-4.934942197638671,68.00790081439328
1.7544524303112763,1.8386508451939731,141.04745045987582
-5.018329804492425,-9.74757740120112,26.636978832648882
-9.098696271049816,-2.399462823754306,58.45782303852953
-1.9535576156556458,0.213843121089138,105.32229394137403
0.07997775902545243,1.7803686351778538,155.68942848532055
1.7033614190132702,-2.5416755291478976,162.2286554142969
-0.5222417562599454,-11.545917548909808,80.9655640486049
-8.802539306601753,-16.557247134923458,172.98692458395715
-6.902696172567456,16.53286877078522,95.78314900835316
11.00146476927977,1.8694510430203382,197.14081032440296
-2.01754418891358,-1.0884248531059684,45.8195532516364
2.5937388735956834,4.604388464342791,132.01279376922523
0.2950252449104749,-0.5409319688540553,118.8237351354792
1.8587117070912467,-14.056543613473858,45.44876851846114
-0.6548731839742872,-9.123917776275324,2.9646634590755117
-0.28988312760884116,-10.796433298393495,36.40667042891648
-15.685279264472307,-9.484238254771723,35.29188432715136
-15.942996327311405,-8.235363836310285,142.5887191416151
1.7418417865630627,-1.1187861412678295,42.436499117961745
1.2082845806411162,-4.174651584046803,185.58747539805418
5.959110274644692,3.1812222216526993,48.78105587428021
-6.898253861527235,-2.1566527801961843,98.68018449567553
-13.413504346757504,0.7565198503365461,65.2905097962242
4.8644307432804945,2.8918537012572214,145.56397055396232
2.184619527375037,0.8867502784447073,195.85006231544935
-3.622634087592801,5.182857424286216,15.136251120405841
-3.2659198424338403,-1.6054687083494004,50.09957555230486
10.485397693305709,15.431641053822766,159.57424845908895
2.7335039342976875,-4.7474823825781405,132.92022573462248
-4.835538831076961,-15.16048559241936,166.17484929456415
-7.5528885957785725,-8.061377753308385,26.723623689791577
-0.08956981324434606,5.9328653884801845,63.85901649295489
-8.097124472379676,-1.445289825061013,69.53650271071771
-8.963605046702924,-5.544926376074554,95.39703997046558
3.102682772998025,6.659354699306768,51.88253067205737
-10.612191750727288,-16.161583447517515,49.187131369196166
-14.958825618681102,-10.2938346636771,117.46607498975155
2.024487300128713,1.0988976406912505,88.96672581347156
9.260950307207683,-6.857017678568449,8.179625699081905
-6.429860168406932,4.043141741457132,69.3586077063284
-7.751251844021319,5.347303211659195,122.48163321041253
3.9582555150786414,0.6225991273386492,98.30227574300486
0.07481345062782377,-16.917591676854865,38.9383433203206
4.267838096657503,0.9864005863863059,13.701935689182232
-4.935154588293378,9.168609521788614,192.82677816876148
-10.204284120796508,-16.522460438948965,84.9848543018048
8.333243022794251,11.224186581466506,34.869364612665386
0.03542859641450421,0.00960978714907806,46.148181359421784
12.160933477629644,8.685846438622917,108.82967089847635
14.71304089048614,-9.787217170952191,197.33681797373058
2.131066879169333,-10.281024084004892,128.1984896763382
8.388953960313481,0.6675270425781893,95.59190700453586
14.231421899096649,12.970763092900187,86.01982081401891
2.7845578380616547,16.439203240726542,8.530019357051778
-6.936705748346197,-10.007626576086414,120.9037312364871
-5.469752285957683,-12.050741956540067,156.28502644463737
18.09689042905697,6.5615833054489245,14.51605441398316
2.349998355522311,0.3004458061328931,84.83707809654506
3.5443006116574187,7.48366708133957,119.50432136463166
-8.612399361922426,14.389190758069498,60.022405729366966
-0.3582654600357272,-0.24772403398012066,166.93337921487122
-2.98067559324,-12.542495656129429,105.96649768377355
-3.955240631972073,-11.99446006979556,159.26197973229702
2.187061508575592,-0.9760603173255075,137.0210206092028
-8.60318296560435,5.515897825858856,108.5784385672545
17.409752004656298,-6.741674926568073,91.51031619605381
12.440811415127543,12.538821226363416,109.94962377226807
-9.99150955843195,-16.620665533041567,89.82162558132927
-14.682006604476257,11.973187001264629,171.9837037242062
16.439309015918823,-4.620042342278442,149.70741136439042
5.923636450475461,-10.853753549245004,89.45905556269575
-2.3662930982086867,-0.23213367371184992,60.683269069851306
2.6828400186934984,1.2034833453349265,26.474335085782428
4.763567036610266,-12.832564406211782,180.83477485620583
9.444045798393589,2.1234849631866317,133.67737129633642
0.9775765985556651,0.536519157884145,73.58180519360036
0.6154741713390065,15.217930739557904,79.12127163439662
10.775981898704083,1.9432254718459707,146.15028407222746
-5.786137305187982,12.876699140297609,93.68160968586368
-9.946190273526689,-10.290591042653924,6.894694234246179
7.858034521573437,-3.594988239449008,159.01975139252755
-9.220999358642352,-4.8884047702687825,36.37616435031574
1.4884124088829045,-13.120552564789913,86.82629074583804
1.8999037833411652,5.789886726956564,100.40993134713705
-1.2470313542896998,3.5905026288287587,195.78521863346126
6.646522340439606,3.637120414619374,37.222976796038076
8.144727684032532,7.940361249934518,4.8466637195226925
-12.606420758543756,0.9382816580292757,136.6213997957531
-4.693702681777043,14.618871953677555,45.390936285976565
-2.2811268732106535,-4.919417079312609,166.38706717864233
-1.9132105749628703,-2.185000973948785,73.4348780315952
0.19425548772763082,0.24390980298143422,99.64177532998897
13.675669409458012,-6.726925007525248,127.65978296069855
2.5665171177535475,4.957193410010006,171.48830519772326
3.59067841531765,5.802172253903211,158.96922023872585
7.805724114928453,6.732018584448199,12.473674820311786
-5.0308529736079075,-11.797070247435382,119.54328092601921
0.018868598343128002,1.2426362445132715,28.406314782192112
0.10748441751089662,5.224889589555133,113.42823159792465
1.5816212212468748,-12.660752161235191,136.52745780980996
-1.909945146523486,10.027976846061572,15.824154089889397
0.953681101618028,-1.0495383426904472,189.80673139146955
6.443412868189248,-1.6488618226930625,66.80214092194376
-10.189746316062712,-7.45269930952984,198.81629467193662
4.312977555524844,-1.9543396275541687,57.97831987570916
-4.74764435935225,14.717454969714948,33.909456562886994
14.672818034267367,3.0603606656905793,125.13531369241535
2.427506881265369,0.361287892030672,35.68001094855773
-5.085204014450573,-1.857076594905672,174.19276401136884
7.880675598568989,3.6845035752357527,123.75737501398288
-2.144466720871646,-0.5785097240230074,185.47733460575162
-7.84809491607961,5.893139165624013,180.9313054115181
2.5472535004956836,7.623243836009715,102.16141851433595
-0.009480965261618568,-0.2011008048710481,191.6106335983072
-3.156065876167677,-0.5814734672858093,158.10884796907044
19.479418843915997,1.2965626648831168,195.70587526552646
2.195166554321402,-17.50578792543192,39.89704900218782
-2.756256221225555,-0.913321922907658,74.32608284891491
-17.573700221246064,-5.7328936091098655,142.0197412477023
1.970587130868401,-19.671387785655014,100.81616508821654
-8.913943210565368,-0.07352513487263748,65.08347801785321
-5.584454874705127,-5.500944529513469,50.005180590807626
-11.313299366924088,-2.6233837834331175,21.129192660312988
0.9395183824238211,-11.38840965984264,127.16037835270693
-5.91989629985465,-17.75790690180417,133.12898145358685
-7.735853999326623,4.0098415229204,16.2639846599687
-8.705528049058955,-2.3337777315805965,9.510491712040992
7.672400290201037,9.136700044409135,111.63322098321275
8.610979013737827,8.68490732333648,76.9959623734662
-0.8343465415899717,-15.343004836662105,136.22092675060492
4.356727417855314,-6.406625740979104,101.68246563911039
-0.835197383459758,-17.490499899412438,51.62538798172969
5.8373082739559505,-16.26348634214328,186.52736980116168
6.39005069785518,-1.89998733905578,39.760593810668944
1.369616795010116,-5.398851314100298,99.83973801002625
-4.069217840456792,14.545442479143249,170.9916380213192
-8.025443416586135,-3.321152731610568,95.46646725733522
-8.620235753645025,-0.5917931406833331,87.69231172970426
8.081169093353363,-4.807026143072275,128.31852299999179
8.361009465866701,-1.456538771425698,32.443473143956325
4.214000992550479,-8.619726121329126,183.97053620157124
1.7914592808111038,14.870050269970722,160.49487028849322
1.2056488274342412,0.25453977621408175,18.74030315852586
6.103547292664371,15.50392501163567,153.06763928199706
14.185055178735581,-7.9324603245643885,69.11607178060466
5.766647070234896,4.698534849018476,183.1718507244949
3.1051676996154254,-8.611272307596785,161.6491361720847
-1.2527697465195442,0.3298493465244213,82.00093933951142
-1.5792947718502812,-0.15674129378920484,146.15701537264934
-0.48747339108368654,5.7346268225706165,1.791203360184901
2.2551235282361723,-2.0539866406018255,65.8148421263963
1.034374025406899,-8.330149927475393,177.14802102141067
-2.737095282292483,-0.2697215597258115,113.98600542760921
16.361030932420416,-1.5527575406189533,85.13438541889518
1.0237469069337177,2.5639454442292036,149.8372536611183
3.119642887025998,-12.665290364121176,101.16993122235452
7.823333345805607,0.047563655506269266,194.5992257139596
2.0969881086230346,1.0768836270353748,53.866180435559905
9.045579554335792,0.5255784464210516,94.85721023560814
6.302695752830109,-11.348455185753025,29.319597163982912
2.570790499671489,0.9554405928860694,143.51186444108524
-1.7547455975041404,-7.514272460768448,72.3205518502438
5.1567608713862825,-11.652274430675305,66.18710305218944
-5.4543134292525535,-1.4421742939373332,197.40762276238485
-14.547241793061064,10.058175957729638,41.96831338853724
0.6335068719615877,0.2813233889774149,87.47335183417127
7.159283777138668,-13.384719038654811,155.1567915901251
-7.790140515770104,-4.918478680811658,132.82230638282502
-1.014481760979504,1.9751410220713115,131.47750753471038
0.41666056534560586,0.7347125099213594,47.92065626482891
3.7339429985382835,-15.806849115604127,70.54884363882377
14.1803921542671,3.0156639664467533,145.90410926029892
12.446043357198,-1.4351692263373608,99.28799210420556
-15.298324084425039,12.133388855002847,172.92386270164042
4.672505098475178,-2.3056720475010386,132.19275468536327
-0.34519146605413437,-3.3773954539960123,96.05413826529595
0.6404951900253807,4.762149626347649,185.21566333015616
9.213151703736255,7.404356685438433,171.99585411374832
-6.959622550108333,-3.369841177054262,45.29197557035361
-0.3049908855283509,15.235643651549102,110.34760940011752
-0.7167024286533492,-2.0936611175442312,190.26817125267823
-3.614919680159474,0.7467776014241833,154.63798246760206
4.7980747761799085,1.21503987817527,164.34971916781967
5.14038587886928,-8.442985083699927,102.41410467900569
-6.786897427765886,4.876908464874911,5.792998763394008
17.127932561083572,0.5620270784209132,120.41697117062897
-0.7439432995017813,-19.828434295534873,74.90793675319284
1.173969522724508,-5.963211208345641,134.7939496181923
-6.2672106653390305,-3.115057625920202,68.51782280402965
-5.113093110643261,-10.79852890833972,149.17051618794738
1.2723146959958604,-0.5125190871537244,175.04372742433824
-9.064403067101125,5.427278311605611,35.00854208540076
2.000026870420572,7.185023964768629,91.19200035062636
-6.5969312993946625,9.136040132121023,142.24283601693728
-0.1952498499615668,1.8548627275860325,50.92600453702123
10.279632544642645,-3.6966377758303945,33.11968405945394
-0.6518805946069379,-1.1758336621455632,88.56258784490613
6.523726122608973,0.6874121277166177,193.61740212155422
2.1076041264338787,12.532736246756407,16.957438103214926
-10.038061073695546,0.021523831032383478,72.77759597689999
10.798910307034522,8.269433241860064,77.25064494843062
-15.049442478167633,2.3064299635715138,52.49331116138383
-6.148062270616243,7.2419810886083775,151.19045554200966
-3.4189725040393077,-14.623326026675219,31.074836499025448
-16.107429440428962,-10.274693476034832,150.0812353156382
-3.1279777120522994,-3.741927241046895,80.11046379408641
0.2839575659303154,-2.476608899512812,33.42279847585004
0.14673283289509378,3.309533312502228,33.606954754350646
-12.573949765700846,0.8788351284180931,48.17623158149998
-10.936389062052866,-3.250028734798035,112.2846186617078
4.552227300556442,1.940456898566256,51.44450008231654
-1.0911507224831902,-5.396181853821745,77.42047364147172
-3.02287226022493,2.1009319942142266,138.82629690208537
-0.6061304059113712,-11.599068329421051,62.8718016711002
0.4834775819977799,-0.03184691947046102,58.94325669170819
-2.45418390822015,0.32491141208941127,17.627827534648933
-2.8639446068975314,0.1867906144200589,2.3551089425047245
-11.767482939278159,0.30170579625117977,166.77998516938473
7.281491092348955,2.302677329743804,77.00797987676866
2.97009746275269,6.4978624095265545,165.4361019942138
15.63947751266191,-0.7778413757316385,194.5845541926403
9.103719500623098,17.61803172695557,90.58894483317535
-3.2993421454324245,-11.322302036411386,134.45650614375975
-2.577379319813009,-2.723950289784997,160.138585931247
-0.06069564499830598,-2.0334247045187697,23.54617692996235
-1.513561977040157,0.024571713898835883,126.00593543087967
-8.942722966985638,4.283274855780005,101.89883087943068
18.929516081901102,-5.579612508070217,35.02748426832374
0.6539434068957108,6.885903057891345,121.07519605800351
-0.09838538729435883,1.7527755511957446,79.1523241301806
10.021686783685034,14.028191594910583,41.441649998830265
-4.937498372799157,1.7010392916067987,141.02378465976471
-7.493964085358141,7.153378547617793,146.01335475630927
-1.208650740482788,-2.242090010936869,67.3358806643311
-0.5749734563533693,0.6245672111190353,173.85212867295027
-14.280285216714915,9.724043108705192,160.08897908450817
-13.293970904678797,3.9864994259080584,194.6055481966445
8.96942946398828,-13.641793603964462,44.79925850404187
-7.404155491728937,18.332174635877408,195.63924339753663
9.326917512434061,0.8116779731025773,30.344446038652116
9.67692549380562,-13.862517717743877,119.60411814221446
-16.559409275546468,2.3525890951130575,29.69677466245777
13.387102853198266,12.728791251571593,106.09942829462098
-9.99114437859316,-5.447310088300965,164.01573411107702
-12.739309127924493,4.655764587254357,114.0868415779734
-5.852275417067611,2.402521112824572,79.81414328623649
15.730014808266269,-0.2333725217238714,52.94237689722192
19.114244862815298,-1.5464063315133731,135.8752727447037
-1.3048675730696666,7.293448147008442,71.52677228382235
8.502968200694518,3.2066149016898793,88.30248218913377
4.691156037895451,5.504785689941712,39.14224215543569
-15.26984432968467,-1.1920706401228305,161.9411072002343
4.40773925033727,-3.4222555930914718,126.89186263343821
13.336690681340258,-7.838389475925674,95.20550991128573
7.153729298745348,0.32620415977003064,103.93350416725946
-4.942688524057016,-0.8056778494853517,71.92558114995973
0.8425893341498728,2.7727319917438895,133.11158928006347
-5.0775640120166186,-5.727635774928522,22.068878110276312
6.738072559931886,-0.9111310624828134,188.5584668839396
6.493731675504539,13.543350493263738,165.7946195785548
-15.830211585135675,9.021253140715885,1.5526428700431527
-5.571391171341492,4.8909194750726925,74.05519146420853
-15.113099495664915,-9.86078742484033,181.0693480598855
8.884182423406902,3.5997657007141433,54.164617083130274
-16.56311662212059,0.71169361851077,153.91577599791887
-8.915710345195969,14.914932358165249,89.90828759625822
5.8058751016553884,5.130845803133844,92.26884638068584
-8.820074122026849,-13.587048872536064,91.72771396469153
4.156465503478267,-1.1564611910789568,94.95218540315109
3.7344409170597452,5.303011396569096,132.01551106173872
-11.914355694907776,4.918596124650288,9.68832256522223
5.707415515782457,10.861019924593936,69.56554256964469
-6.063893758313851,-12.219182701023886,40.952243051304
-4.092852836437544,17.62517303453547,188.15976625837502
-4.425466943526522,18.298961954063632,129.50485295345968
9.460744997383467,-12.321365522002884,21.34212480501423
-1.9208382797371457,-19.21043185081596,29.515370862298916
9.009313878259434,-4.908484972027463,122.72588980894514
4.973145734770606,-4.040751655179933,105.07105008360935
-12.741023624730994,-5.051063916798023,121.28467768692022
-3.8556233335438037,-0.8465407695644916,199.2875514090823
-2.613591068432446,-2.113395317297786,55.107235095412285
-11.668577505812262,-14.57253386401806,87.12761397245028
-8.930375066312495,-11.119750489935072,45.60276011999882
-7.748922577681205,-0.9114964376432977,143.0288589558965
-14.693459181349322,-10.083674235318025,194.24773394376487
-1.064961458813299,1.5840787892389365,180.2730848736816
-8.142389576765451,9.10372895446186,84.67702092217695
13.784017804714395,-11.495768536145748,61.51265256867751
1.3993784728310474,0.4382720293129266,145.71652263888046
5.758964123507583,-18.90903854232187,76.0849024711567
8.83283343133459,14.18640893066356,138.63121509035327
4.5498512237163835,-3.2581142414201527,87.99868545479089
15.897741639465485,-1.418129468488679,46.29840121611102
-0.5929190301727433,-0.5901890689765691,108.3637722180522
-6.40918481807634,-5.061904217944918,124.97383909006103
7.047460891856486,-5.692099619461272,183.48663532284039
-1.8454566793329992,4.74785776601552,63.88616775466205
-3.299144292332932,7.1453099269410485,57.80642226501853
-6.624629060358394,8.930176607199712,98.05049571460675
-5.794598016207077,8.993331772873047,5.056611208973161
-10.1518438534754,-12.85461184919317,133.3637246049769
-7.575715585472938,4.990919505161044,196.90597193108027
-0.9589101740525721,-3.3173744124206754,24.7580125008094
-3.2458887240238727,-1.8624228501237667,190.99334168973596
11.92295506939641,-5.249008715784576,104.1393009333212
-17.657677595102115,8.247180496963498,169.98299314194537
-1.1687345926158443,-9.846102512270944,15.742089081329302
-11.564469869632845,-1.5869766825784677,103.86700874531485
1.883829760292465,-8.397777716573456,165.830059835556
17.45593817501303,-3.271578014710777,140.28861118004943
-3.9646222809568235,0.7749846286154006,4.75183905533112
-4.1234645132353585,1.7909827522696136,99.68112812586367
-0.1923910768114279,-4.524071251062188,25.640603056254484
-13.74576045941032,0.5099057511015719,113.36076311369148
6.513440424626825,13.75549720491812,2.601965029068487
-14.487992283256657,2.6855543802877295,166.886007693206
4.854292238976694,1.2657062786681224,124.80490112048209
3.091873430906092,-2.7834131243794324,190.20409850500616
2.8423002633445904,-1.068054215140417,29.6190476657356
-7.3630750741744775,-9.074489254583366,182.88003864038456
-1.7066233106041104,1.0119518023223324,131.1121648768511
-3.719727988472567,1.383555754464641,98.14677182205642
15.914061217321587,-1.047891205267239,69.47843902467477
9.26648393446682,4.791163660819962,81.76918997121223
14.577380960164243,4.091197350637539,117.67982556992618
-3.5928524303571048,-2.4670364343140814,193.81394962898653
-2.460319761527384,5.1739291770550455,188.3981936992236
-9.549887828491467,-12.466204403677546,196.55532275229825
-1.3311631444940946,0.8302120376120237,52.08549544487118
-3.047728967710831,0.8528507731224727,139.156331618462
8.910838250710606,-6.9538011689656605,3.353384253690983
-3.271030842364259,7.000573548215567,33.95583809049183
1.8672678449101698,4.238804765823244,89.981247927367
0.42268343716699847,-1.3081934211258237,102.37589089108671
13.429877035128191,8.833361137566012,70.86491550342441
0.4360838169109943,-1.8745570956750546,146.87838854542713
-2.5918323133554466,14.265348629913866,6.650162583233654
11.900078345811039,1.2300683268537556,71.8939279321747
-10.188426030462312,-11.605297774414058,93.92950264840059
-6.1478364726277945,0.9498437494714891,178.23621674022684
3.721481083943085,-10.99029425846765,72.22537951569046
-6.498287820485919,9.810578763709739,157.84382146780263
-5.698174944516737,18.545149819894522,187.22599938529189
-1.835377927246443,0.20750623674060545,143.15844905922876
11.501997010990381,1.066259451990076,111.1135979039997
8.468432875469055,-9.579396787906505,154.00109577275492
-1.6791221827229452,-1.46902413488296,96.21148220142447
19.7622374212779,-0.6940526228509938,17.23283580097281
-9.238665035223882,14.45493869205412,110.80922375962614
14.474500603606252,4.364277744818778,86.66507179457687
0.15958952387322006,-0.10731958676705637,53.35732936924151
-2.6260181688008535,-3.488314952219226,167.10022690954742
-14.476486888955977,-6.103692818187008,26.645301760060903
1.99742199695338,17.19070017527192,160.96930499778276
-1.4646153319168858,-1.524113017652877,94.71422225848065
-13.882786842676161,7.42797002934289,63.88107977654567
-1.8968853404354988,2.0992279660576627,62.02175065340265
-13.15373284971842,-7.4790310777093705,130.85171288358427
17.595452128279035,-1.4628340625327456,160.89116275601626
-13.415980156928901,4.485588959613331,187.30200763633854
-1.7292488401290136,-1.615165824982691,37.044325479301435
-3.8715289969260724,-3.148439640170851,163.730698857286
3.2127368441254114,-0.32151522734490795,95.20532915436048
5.785226854326183,17.55710251660791,95.15080556152762
-4.947296601694511,-1.7586422728945281,129.27738959276243
-10.776724718925639,3.877353502694232,39.66813133498495
8.258030928812623,10.31487778816666,114.60944521803435
-5.237921303786303,0.3205078997657402,54.07926118000259
4.786979465611838,-7.380632774035705,191.48020100611168
-12.767310943311413,10.701887443267978,69.173352858455
6.685330915606508,0.5636436195020923,56.816355606702416
2.788259677387572,-4.675962922662136,45.39686459974512
5.581947200698252,-3.3686296212733327,176.92984212082635
10.372940135837688,-11.382910682825676,164.26936932147512
-8.628122285773397,-1.2041237633327313,104.78409119538712
8.507468746866238,-2.858614383272695,57.06056600394185
2.998271570728615,1.4841466396477754,69.92626692482489
0.26237854936844807,5.19336741604823,58.113984617843386
-7.1149039652973585,13.590721721081108,130.26218288469084
8.38254204456944,-9.62191613759745,100.75056194608626
-5.174305476161566,-3.405224746663716,166.98725841587242
-2.2960682292293226,3.4191030581521527,195.01341632789382
12.103469676897229,-13.52014996647376,7.094595952657934
-1.680216572547363,-1.85433681020249,169.96783891890317
13.10134141138902,13.990625154937298,154.76525235818653
-2.332506990332125,9.565200617600677,110.21108944349744
17.867502230838216,6.470942597319822,5.232878959148324
13.576705577176423,-7.0206310426895255,164.70171527494398
-2.908479675730381,11.442594334272666,62.57341788585813
3.98671746858463,-3.3585748914413305,96.36937903029106
8.979268924227782,-10.784444989736278,113.27954304622196
-5.516977705549998,4.153094828450606,96.08702146134252
-9.70609582693831,-5.157213733143259,12.73434110710021
0.7034186862527732,-1.7495195986239886,146.353906669444
0.5794469420996943,0.8904164032398224,16.212357935008836
-1.1117153622004192,1.6759536045124,68.55618778525528
17.974353965450668,5.861053415995895,191.53605330382933
-10.93124426489065,-0.56231760951838,10.922733639359317
-2.241559873045046,0.847958133737426,191.44816088554848
1.120899287744535,-3.640346694031367,112.48285014897723
12.900105812750807,-2.1216169675276957,62.166838084969946
-9.898102531666533,-2.6278705169581644,108.66333958477385
-6.094910422795045,1.680755506569315,44.37746691647442
-7.852938204064468,-12.547928584362385,21.002860090778874
7.789059075607484,-17.134666216471828,126.58061423910294
16.210044537338995,9.443442355820254,182.01546738372684
2.611972768383101,-8.359767296604021,24.96465961740295
12.4638860448704,8.54394425730321,63.4168688573429
-10.246204228731822,3.347532567459593,10.325219285430066
0.8743170512943171,-0.08507155906385819,40.50061500361799
1.0390240755297142,-4.706376650421131,126.51106615287833
-14.18197596260826,1.7502660601354527,115.671146721383
7.536407696799665,8.635386397613429,116.87121170782058
-0.7137774556569098,-12.703094952868607,128.1201601718458
-3.8044634305152885,0.09976602678032048,63.30825665533273
2.1252092437379226,6.119787874287369,11.629605617629046
-7.608770925900156,4.732248708098048,112.4113818762581
0.8989581623727361,2.992890146156782,191.24820755460098
10.338609060842275,7.329641894554475,28.91757749789303
-1.2672034079158279,-0.8209078280128985,159.42048947810957
-5.817029976008102,5.122431689432828,195.70077792091345
-17.054051376281524,6.723070138801736,139.0429769857538
14.507253695681817,12.949227510518627,193.38708227271863
18.892907392691377,-6.480902228269539,27.242681472764964
3.5302657504312704,15.550200248244215,82.23888541268865
-3.047567669859987,-0.25750915916153244,172.66710779357618
2.052761983416942,-7.158152960728109,25.431850436004023
-3.780742857118598,1.0337991738940657,19.34649524669576
8.455192209758257,-16.81551850611666,122.51707454409728
9.370427494202335,-7.244713538122862,84.37522931040704
-0.011864334972567926,-4.828525930528438,53.02740310848768
-9.931649377779582,13.527350636333209,49.67748687298115
-3.919192877618623,4.531293501654881,83.97597171586885
1.664712485353785,3.20522144237066,17.027105897850724
-0.547097641674929,-0.6558826471945128,97.81593442358904
-16.153008197990598,7.636346326555492,91.38520133069025
10.7836285109182,7.518165565476679,60.766606884198794
-2.821768726185422,-7.922798644526621,1.2281705279652
1.6151422068344743,18.73014771247102,189.33553628269817
4.294314897046716,2.9862731559037337,118.66166079941884
1.3993182609992176,-11.512821855520732,48.31170755302993
-0.2260690581161627,-0.7763786407194962,40.7062748327784
14.949225989547855,-3.4659142789313093,103.00905704766758
7.672064075541424,9.128229251366191,192.45780594593126
1.9838497490311382,0.8801460975389823,135.26300172062943
8.430774063340522,-2.4617995538570434,38.66465364436611
3.570008079152733,-1.7214159616595877,84.04352405845844
0.9311914197912409,-0.5672437912672508,187.3799345134488
15.730275541893578,2.6693890152932114,82.94843524421012
-7.719660660399393,-4.054651222301587,146.7779087819459
-5.216174767144523,7.557512340915215,8.8152670304668
15.416657004861316,-1.449375539239526,15.857347857708959
-14.439751033342322,6.078251931242617,168.3654167046024
-8.162505048428939,5.033383558668193,53.14663729204141
3.6846344890453486,-18.50442526407208,153.82485478254213
6.157831280328801,-12.056125839732857,93.32084869456861
9.308602509448388,-4.202014056908503,124.21843665915321
4.823717785734986,-5.764446387733156,62.61359043876045
9.60532011950204,-10.616247455066162,64.09907847765119
5.396024668140031,-2.760758388626597,115.1114046620839
-17.85095284585141,-3.5372883908531376,13.460756381889528
4.812977275777016,1.9151098437180867,76.45599755115882
-2.868880210157528,-0.7874465992181175,99.97131107613187
-5.78592472664123,9.250967970489233,119.96289217602796
6.512583393844257,11.875885582289934,119.20500494001985
0.75936820755085,-9.881208443604585,195.1704952405309
9.4208381309894,2.1394801289849705,46.13867528707083
3.4283034210427648,-2.8755046251743006,31.464726600623095
-8.59995929803188,13.045831601322018,39.329381160298716
0.3990356451527449,4.552186224434335,161.63768479967567
-17.347570979616336,-5.786929416472084,24.420809213248674
0.9280765908675428,3.454006332007308,150.99542896618473
-3.8997539310329516,1.0293454527597998,1.6334284404734056
-0.1489456237845403,0.8116549157616709,60.527204274879495
0.012467418297728112,-0.8917642629838886,176.27118039239778
-4.571157523958152,2.529083045793833,63.91480840529289
-1.211539928017126,10.286649246134312,78.10254404666755
-8.532860691983123,-3.0621321240576824,41.573606010279285
-4.421303044505175,-3.8669476463140104,45.24446674909483
7.49701685130687,-4.517273612686464,132.62892923647075
1.5692173827381997,-1.0217414987458315,102.34401481342728
-1.3073472627230016,-2.7692053062743414,176.80335537492218
-6.370924958899808,-5.907447484735785,94.7422085306161
-14.812565627785514,8.51916190599898,164.5492114214688
-1.5616060362600068,10.479034944157355,38.875696124649075
1.0281189980691878,-13.859507466038044,187.34536582718272
-10.419765683049672,9.173147442422218,38.41797503224884
-8.55782931820923,-3.9409390053300086,68.89023335001185
8.418997216338333,-2.263322935758688,1.0197890202579885
0.0067212979481392635,0.003917364964079975,87.56050835796674
6.522381749207431,17.34817631077295,73.24518147858721
13.179815477275039,-4.443431302071754,86.51441432829756
-1.1450754447393865,6.427964170884598,191.43989321493464
4.720050491599017,9.658018979644357,131.49272054239665
-3.053410133781244,3.252186259801224,65.454388605849
10.332228048562815,-15.922274919902728,26.171996248383
5.9941330705234925,8.788435865071447,140.1457532044975
5.361814596271961,0.9648705234504005,192.87388648528395
-9.370585179595322,5.786943090581153,42.17771076159331
-0.49283671223943837,-0.6545088826898872,165.70908315917902
-4.876081689943976,7.4092600771215835,5.389630064439954
-1.4730726775233323,2.582062579082315,61.84713187839821
4.468212953438429,15.274397018328251,194.36425961294904
-0.23976868942055735,-15.669230031012814,190.78980609143636
-1.087206042712018,-1.1801516689797547,193.99129324598837
12.806100373368416,3.5546126830358737,1.488518005829098
-5.847195828268185,-8.081242604785226,22.916058294957374
-2.4586719327616073,-4.004610287712529,194.91374035043245
-0.5374134232558087,0.08678690538218692,123.57641579676877
-16.958271486287956,-3.343518259406511,184.8121103193409
7.376036028393124,-4.551412938374191,68.45146738490028
1.7646921705530396,-0.6336764742806383,107.74779700996626
-10.962634400611911,9.986732764346316,113.3092168418513
-1.4619802754028113,-9.066456756468149,163.07619518563678
-1.679576802286947,-5.380675061235648,44.21791961684236
2.5586242588460406,-8.32654614476217,135.08227001082776
-8.37348652364739,0.632292685455969,148.0757447374721
2.3947927639952837,10.821354019428002,97.36227201806993
-2.9102992521852107,1.7854571621009618,31.72194864259925
-18.263301425069656,-2.3641691918840024,93.38975680965534
-4.635594928808491,4.510316163896881,177.34638775608263
-6.724015239659334,2.988572735893474,149.54289991308264
-2.3628490089195116,-8.4684149329315,109.05984927107804
0.027518832903141936,0.1937696298229783,127.59562930784271
-8.095851692704098,-2.290403250113712,94.65408226125595
4.491614021334361,-11.386241072391782,157.12865267983796
-5.925259919698146,-9.449863829925134,35.412094097734915
11.309605235440447,-1.564600172976711,151.32030760998535
15.123026570531662,-11.648329719131027,45.3703273179457
17.993364424165133,0.09605507580695671,36.00288867242061
-3.7742574921635414,-3.613595897431433,36.55182535012569
0.9903483803794907,4.7835259988392735,17.899110616758772
-6.907207006494298,7.442746798646503,131.2833016618389
-2.3155476583751367,6.029626759602,82.6685828276968
-8.266284994671388,-5.532519704455771,136.32903431976013
10.973968164544843,3.3184860094815325,199.99373375577935
9.796195073999275,-15.376024611889122,136.6355958850906
11.556796887942339,7.369734447363207,173.68349234748945
-8.172965894047511,-3.185446410866469,15.39016038604657
7.988787781141147,2.7406471406567863,12.042376188316762
0.8493184000789222,-15.417146777738845,63.00825013462137
-5.369138500983244,-6.785398054420856,137.2764038748607
-17.76289016996474,1.8397898215692634,44.70511981702667
-1.5330183368521806,-12.816976858665647,124.83014911209213
2.4682743144153805,3.535788771713368,132.07954173238977
13.806455166553937,5.2155353584367266,133.75355647009042
4.246217775320567,12.364690689436094,176.39472979173462
14.825750233905444,9.412016032689694,81.6149734946165
-1.8314061043906331,11.593499648100803,31.152459016476165
9.096483394095712,10.791697934051488,141.05045829912746
1.5841965901605908,2.4740408436217294,177.70068719563403
7.441973871371059,7.181702799035777,20.76511769529743
2.6147886505885576,6.1948185854405375,113.75291923037165
0.08651226089008927,-0.43976903049403476,136.65007698220003
