-222.75333645449012,0.48709045820011276,-2.8640805815156636
15.509031185570338,0.25361935218465526,65.16535365355054
213.95868102298334,0.2678513127298887,130.07733856107578
-4.957591982031792,0.34555685322170326,75.68665724316882
16.84409423234676,0.4397750070895683,251.97665974346907
73.49795956698999,0.4612751324235733,95.23292926311291
-66.4716748563784,0.4380426843547709,98.41375225016085
-14.812472020451098,0.9171190311042476,129.244704216744
-60.993372972926196,0.7985539745672984,-131.88939739434215
52.28556688901305,0.03275098640183882,34.23355918756555
55.98217624671585,0.5908834714392995,177.57054826800953
69.49322952283865,0.1895733833332548,27.613860299865458
-48.394806463058906,0.09887224843842357,38.4538589797299
-75.93955441286217,0.9703833306551592,-15.519113558825701
-60.7274177167013,0.36750849026530263,83.07055168752126
-22.229828093198233,0.14631669567875327,-155.61014544489032
3.9128829238894323,0.0351357320436978,-47.63699864814803
-35.68759911590131,0.282920518922567,84.21114603150313
72.23649413215489,0.254195159813392,35.90408847220116
119.61401290249876,0.8234906486141845,175.2567321384167
42.12769934141682,0.57518889247885,55.9604198659719
-159.28202058634622,0.11228568402232286,-78.77451063948929
53.1715384473781,0.5284461548583751,-5.058841129476925
236.26899334384728,0.8870501027437903,132.99171355400122
12.417503184187218,0.8425252511902813,-5.1149202923259685
60.19416556760609,0.805266554974584,1.1782170447662046
-62.07845438686475,0.6067959841960404,-255.1347340772308
113.79750940859223,0.7940208700003195,-93.8500457892821
-157.02015839379357,0.3732249453044645,23.24658227931059
-92.43239014094443,0.007955829554130989,-21.014750776419433
111.77993578545573,0.5424641834283193,-1.3319104408299232
146.25549895460784,0.43436654877305636,-115.6491280988007
-58.722310310781204,0.41326542404624445,34.6536907527431
-62.655598670910315,0.07293738583220566,-66.85273818016651
-203.66403990210316,0.5443317297847391,-112.86190806823086
-53.271301175213026,0.8629104123663067,-101.60232699809598
12.559806540893115,0.2836040015603093,29.105562887067144
50.24807575430844,0.049197046490990326,-5.927445997857957
9.424594690767549,0.363224824476419,78.91947909254687
124.35876588652033,0.6069357359866278,-57.301800031089854
146.85318423742146,0.29058487651720455,90.21986083368611
-68.843506394107,0.8271081713202904,53.855460647443074
-227.16005385207802,0.9940958484945868,32.99067862090416
63.10922133610356,0.8537631036918497,-11.093665267353666
-7.851012615592657,0.8485577814585491,75.50898056462623
116.52675221762962,0.08320619254355766,125.98772696056007
-28.852271641572585,0.5616032001871399,62.74875295395955
16.233586473099372,0.17021713444633657,-164.1109182452943
53.19120512180666,0.1940522392422479,-17.97995741762049
21.163599343214727,0.518543495965374,61.32676735651288
-191.83420737735122,0.28247513577684447,-34.66512814920892
138.70663038041295,0.6459546439033097,-61.064359467832176
-107.42474314096131,0.18969742607432294,-108.7302793084669
-150.83511797396199,0.6535406373717182,-38.66544252969549
96.24702434270463,0.22948924140254634,80.78647196786324
-6.322357621900075,0.16765750277491076,260.25363291210226
17.990252002346782,0.736152495798149,16.163318304764513
62.30378663176294,0.7901082050073212,-46.73677856086152
-50.96336089127037,0.1746474142344061,32.23440503890961
22.813962458676677,0.45310074615227536,-142.87255685679185
13.69492191591603,0.2750277313937166,-15.082212011818589
136.7630287739151,0.04753569874659325,-3.864869234410767
-22.455599234074295,0.9442077696455017,161.09217355047255
-103.22664580505591,0.6973384312645403,197.87540602975687
-82.21786729895794,0.33618095483758037,-2.302947794084977
91.38013278355733,0.6460456019672052,57.1955460303761
143.29049003174472,0.46110107683712587,-26.34861818434183
-149.4184818023153,0.05185641120589746,68.51596303880582
111.49484259278728,0.5155661357918668,74.33146713565463
-48.46583939821399,0.6674085650254992,-123.31050015412627
117.23631922626447,0.62853982570532,200.13148672036598
-86.46604599169558,0.43509779193077613,-1.8914437714540457
96.63916117830264,0.08326452824558983,-32.69597761514635
149.15609367036623,0.6965978429149355,58.77339436456168
76.01189363145477,0.4621799140767008,51.43468147534743
34.194776996899904,0.8678696721025307,52.97959003191143
-140.28317161906384,0.2859287328073139,83.61780933525603
-122.30359403818458,0.0703904130153089,28.773192652374984
-5.155777957245211,0.38011771227095725,10.574541737139022
130.4664859115084,0.7185885389689771,-75.44947840366892
82.60477706571727,0.8635844062694787,-43.569034079570656
108.64404731843887,0.995829120325645,-61.35315128398881
-11.293772226140572,0.5525339181575334,53.599537272065675
55.66219715762968,0.90142100662627,51.11120254842416
45.29042667165225,0.3410452540445066,93.852716784538
-77.96769524695479,0.11622096548967775,-37.11088166413761
325.2541845564491,0.4374997148637836,-159.0788598513755
-146.6703557251791,0.14015574865803737,-25.858495092424523
-168.63702833890432,0.366304638391049,-120.24781244507182
63.588454813522354,0.3078909158755062,164.3388595708477
83.47206614517079,0.17409584177730508,99.16684333166631
57.71618312227989,0.8779522912864546,136.28802618260778
86.3584455418335,0.8261718310714401,145.95256792233218
-187.3251256346617,0.6887142671139103,55.26477007751767
-47.97198928841884,0.8923183687511768,-124.24499496243864
147.78846966116046,0.8514214716607648,9.242646817950886
34.12184520739699,0.558057091314058,-45.54397585942289
-77.58758740468626,0.7360213380226134,161.54064078841975
43.83096589595043,0.4820901992983794,87.56858123261951
93.51613854277637,0.6372761574357192,60.52907101100982
113.44973484186367,0.30348243471904257,90.45379798812367
86.48696740707474,0.945458130208702,39.28415194824644
154.88459333253215,0.010412201180375225,-159.6783186267198
-26.989494156325605,0.41583201908606293,-72.11035940727616
58.2738947202566,0.5367316368017057,-8.822564821137329
-81.08860893587635,0.08739427549546552,9.912718332189064
92.75070769838503,0.6466142131818751,59.84817946300173
-72.33753046892227,0.5868653570748786,179.71926110874386
-45.73336120693218,0.41809955067726756,-35.39193836077028
147.39720206650358,0.8167131005533194,-195.24292257469492
-67.20821791366859,0.5248769540711306,112.98824064869078
-119.31725237012718,0.2233848111739366,166.72175720162826
-65.07015947386154,0.10241019632461645,74.10607878747486
141.12945911354504,0.5955061180179458,-74.3449767552199
-82.48647416886233,0.4848857894222429,-240.06266023259016
-50.77547010159363,0.3514700490715401,166.23228297087087
-99.29559788688563,0.8600709286373908,-7.717578288000111
113.77817788099713,0.6520295272998635,-97.05359255219105
-56.75831887579806,0.5589026291988441,80.06755706312593
109.7897399802092,0.0683582160538081,24.136313918890682
58.98032178455714,0.27863067620680926,-95.90334689546431
-220.46891609423423,0.37214444635754373,-13.460772447314472
25.940502597976067,0.3235827891348565,74.04612989768201
47.21860403205543,0.3429788416885695,-20.367371879162874
2.398228233431265,0.43664787960400453,75.55398448070572
177.654884134433,0.7826111345352647,68.16982909935398
97.5034238079892,0.9436461748769639,66.70855290932779
46.303164056958416,0.9522578652835509,23.992915439675492
23.518016224979814,0.9981390689181481,105.88010021047509
-24.392648445082834,0.8853803691935516,-47.03388163154242
-11.0634019351127,0.6388426808878748,284.55809280821904
19.741044975774066,0.6709903796335172,-31.801634985052786
33.3434425308434,0.636582980544706,63.496763207492165
-56.202808066823486,0.4588448789522489,90.8973415570822
-96.65787507365565,0.10899922486729685,-62.617505947554974
-11.016515619735214,0.044984862590245145,-19.524482167215986
63.46301810425088,0.057965740282765243,203.63337569456186
144.17076346075345,0.9709023610486565,86.3001819483199
-37.7627749181427,0.5024388264177818,50.99136796182291
41.454636365634485,0.3401617888451355,-142.99545269664247
-66.68798978006055,0.8599835411148257,17.13475573644715
3.678874180773269,0.15353677735308158,-129.3566001349315
-6.3387257925777885,0.7302926282191653,-71.91080928547919
9.718170166684523,0.8968391459413134,48.54919124970193
-88.08730044108994,0.875567601595025,23.65715738495717
-119.07199970234672,0.3204586406419888,13.372611974893731
-26.547520320470625,0.29642861577456303,-19.986572076235284
173.27931905017806,0.7156992258790775,139.48177360942904
-29.274311476779086,0.09389458806835094,-93.94114989936428
29.136993576701386,0.07613872564337376,-41.63926718597084
-78.78001502796863,0.6845339114120595,-66.92926184391101
42.99110754862711,0.3160348560614956,132.16291834981448
80.62347203620085,0.22226523990657443,-260.6967574017425
-56.86324984573747,0.35586471454176516,-58.30071336474354
49.58769968171459,0.7830666352752125,-35.3960872485439
-44.34652762990356,0.44690345302878465,44.606575486906635
186.8245538399437,0.31502459709098596,24.660100997470902
-2.8884335917646737,0.37257323115942576,114.77992124260481
65.80562534007457,0.25927344430641197,-28.883045600838052
90.87495480796653,0.6821768465031062,-280.4702197805286
87.96006944548444,0.7812917825040229,-11.345670461838647
34.83584477418097,0.22838264092082472,-74.23566744667728
70.45987948265146,0.9655478605505932,84.02233352017188
-201.67263335524189,0.6635869682489246,127.30078328492725
165.2225329839256,0.8725663066131045,71.2755819585006
147.1540978300334,0.10111915405679173,135.76454928131022
-67.82238057558757,0.4163335357458464,90.41046005093979
-70.0794347341264,0.3338174180416531,-222.68316837633145
26.20152140827468,0.7985998022200255,-52.603064826898695
21.839062640088244,0.3078984659329421,-11.94665261119846
-50.44573932828179,0.7937141015029143,50.20640465971471
-119.37849038948754,0.6465896274071892,-15.77099654973406
-54.00891698001268,0.45617521595529664,61.08479385586519
47.07063280356498,0.8727813084252143,-138.20713944837067
40.342199196557935,0.20712354618390894,-32.959007319019356
-15.926962505317807,0.026391079771143522,-109.01284255142436
35.97887291885794,0.9915371306840882,-195.19073806962143
-24.82063236448189,0.9077890782314348,-95.11938971702955
-192.28155417266328,0.9499278424469868,-1.4455170386519878
-35.21246067468059,0.7439275009995304,-71.44531886020508
73.19393707370709,0.5296463966844193,68.3022475848185
70.51870938019556,0.0587623037902808,-8.370349903148853
46.20165176055917,0.5452965554891636,115.75429950959015
-17.152146611796436,0.8471673048158638,-74.11136285790134
31.28949274090299,0.2890662041982808,-118.89877143092097
146.7638825560062,0.9187806284285317,-45.9792895692486
56.07860167850001,0.18646403685810597,132.5446544147199
-59.62753043465402,0.9545946126630664,-38.2660659856796
58.16249226704263,0.5846423452783646,-111.829867717536
18.946645350487067,0.2104135220344231,-32.66977317184087
80.75152420248351,0.5707018196707029,-55.04546838266122
-122.29457050989463,0.9512167312618498,-95.16534084665922
6.491876792656032,0.16221106165165122,-50.313459411686466
42.03996149793118,0.13490069918927539,-19.03090861363156
15.95939665528469,0.10023526409095607,66.4331210999769
256.7998810685301,0.588177215210337,-30.168164668984826
172.58112546112102,0.5705071018790032,70.33452701291644
97.42869783617168,0.9528262653450461,61.85502576819519
-159.05869508678538,0.9100061465824758,61.673619575235364
114.44700382015426,0.5465579397989584,-79.80589474646864
91.97618966202211,0.06810817550860881,145.6291788193685
34.47771300356923,0.9751551360424628,-208.2986184227241
-174.0182276425631,0.5236583768268851,-117.71548926751314
209.61114674204708,0.934071853799559,-57.11584126559236
170.74059529935616,0.8009814330011307,-71.91045085876335
60.86712192258831,0.4449729798274016,-48.74592092673775
-28.699078705593617,0.3315558674750855,-89.88539690685653
-60.44315339783106,0.3015435219942857,0.34810156705626344
3.247241034626326,0.2685475532649778,-94.64844222881442
109.82623447206122,0.471260807341476,40.8259482845993
-40.86431515583504,0.4955359751098063,57.068428247260584
-146.74015713973557,0.17443868990934386,-64.37320224797199
186.60427629040169,0.1835779679324253,10.349358215037455
129.8544466907741,0.4386504849732411,59.17593370802643
-211.69102163806005,0.7109102302821321,191.61535211429174
99.35603908931348,0.5908404321497103,138.76718840892977
10.623042221616503,0.9429335143283738,-117.66729903042017
-191.2639994181004,0.01639901002229338,-216.92968392132786
148.9401485070297,0.20765574954841926,27.709168184634493
-5.032820392484975,0.35901675033709646,-107.86329785687974
-133.15437481653308,0.9792067212240119,100.24097759845152
36.974103317839315,0.8508119817195232,96.22513406870286
68.99029763115473,0.39865887252743615,71.88627323119775
-18.997868414191526,0.6389466372873079,125.45016549533092
118.89265940190361,0.7199151919677823,-19.609496586079985
-35.56564865296317,0.966986943227183,121.86583694546623
38.898961707391464,0.6831403098107836,-165.83625083907822
68.36282422790852,0.0017256533890609438,-30.948289150279102
40.8633847668409,0.5693151644444545,111.89423127630616
-37.13419194530621,0.7775286515584985,9.961576954305107
151.0886193008535,0.043814801235494416,-139.02661944234532
16.512761743410262,0.6107376924648019,79.93862576861156
61.42090308248234,0.15142102290579174,172.49452249191643
-198.17975758794503,0.641988372349114,-185.75162001485
113.57991048693114,0.5250813115043451,43.830568745226316
81.54206953846663,0.6679991945777433,-68.1955424704304
-10.238989886710694,0.6719190257246026,84.02094841276228
-44.80796008735326,0.340533085442273,-51.86443468508547
4.025145162037628,0.5480796603705671,-109.19238299726155
56.8130456676907,0.419958554689672,-77.4132345439888
-185.1038915571514,0.8626689568014949,46.028751410649136
89.00215078361022,0.855624569797341,42.14230792844484
-22.901821354708172,0.28148125800778556,88.35935017181505
-109.28570950650062,0.5424466278940572,17.68932666536501
-94.98620006517717,0.09069056269313602,-43.7506982582313
-30.014731783480386,0.9429509998705757,58.74070432718037
-47.98659391252331,0.6895089542108653,140.93958531946313
99.74432733422708,0.7400913711268186,-177.63458134774015
44.15648162265327,0.8685391685649462,141.0526918252506
-63.24043041542785,0.35192396351037303,-63.52316937215997
-97.5603955623435,0.025120479968533505,-121.12179780784322
-54.583019449183986,0.25580102439184693,-6.0578255083370856
15.071180946953957,0.04321375562157759,-81.24968769107099
97.92334977497786,0.9565920950428376,133.12429869754519
-62.62526653628932,0.449995211942557,-60.48685510684574
185.6720930304947,0.337462742536789,-90.95087662579415
-24.79504998166091,0.3602459844264402,-86.81887687609292
-64.0963693209176,0.2559497167374739,-33.80282115455302
193.23139379106019,0.48238305952810934,-32.0253121719968
-152.4409911250968,0.3563367441002313,11.04891936957923
57.805665668840966,0.38890465177715394,29.71726020807412
-172.61923610186273,0.3274978337547988,49.894636513257836
136.95985877939074,0.6686838896636798,-10.25439826478253
73.02138090260806,0.495122956993972,-176.20495985196052
10.567955545809086,0.9063914208287932,-1.165324230598893
-133.1521445292799,0.7274823950045556,104.13429014967994
7.078901945880781,0.6478450664300706,34.21580026449102
-211.95687121723984,0.44926953609311404,-12.866751058807385
-21.227199444090513,0.8012225879984956,-10.050339061161626
-100.21289245593567,0.3276584644902417,-134.76444138699378
62.656794521311646,0.6724915350377577,-55.03017066384206
40.114368557777546,0.29959504979894647,77.76167451635587
89.89786992339816,0.8913692481689129,127.62652440142219
18.508473312664,0.8194035311786592,80.40312490335208
19.13842965341947,0.24170143620092943,-42.31927079243253
-161.86825977361826,0.2715302676589826,7.907159855056555
281.95156917867877,0.5403487540116464,122.19988006647797
-146.35930205064545,0.057863038232188524,22.517587696853106
147.62163847675114,0.26517530356255614,29.387246389497967
196.82928565231217,0.8057453920438339,-87.20599465211033
66.11132885915994,0.10551888822655897,-38.57382640003797
-3.081617006609844,0.4805372895723592,-87.4291683381886
136.61054044508097,0.7579605395047788,23.875157421979065
53.813228372847824,0.14462074289652616,-105.9253873816401
33.017224390409524,0.7505724685039022,46.43696515178912
-79.82375974326152,0.2751729895095434,52.614599412970264
28.250676691180253,0.37353340712964256,-91.79489384012591
-88.88218130672612,0.33837669849581753,-95.45340600129367
101.57416009173028,0.9898431180442812,-125.75981961350455
145.58665064068649,0.03186563113639418,-69.62577353333108
-69.14984059355807,0.5409395967634142,-152.83063636779673
-64.96981716416335,0.6796271222773671,95.86853592497565
8.811639317463193,0.2681588030001998,59.169369516180424
16.153716869652783,0.7415901489562451,-7.372538663564001
-92.03099304172166,0.3736523574428592,-43.62038032588401
121.419076657501,0.8759576731566922,-81.92378832004759
-136.79748215079002,0.19112986299451518,19.805796235035157
202.91741866527923,0.7046381421961245,-38.39025813042791
35.316906083367954,0.1605296002506167,85.88502941523429
-50.64955833819352,0.14109291251632017,140.65487488624004
-244.42447830281483,0.48190794018878225,186.248290434973
-61.581131157478175,0.15505312798136428,-25.382624024402052
37.44755851891741,0.09088536100478362,169.89262798108427
-49.61095502754725,0.3206269048646102,37.25633462489177
-156.655848266419,0.37251003205641786,149.13123988940256
-36.31243312952231,0.6481910908470876,-96.13430578690026
-56.68057963347945,0.001446910845393501,-190.3585512724201
24.59250362387835,0.5445077567909481,93.47963481844698
-14.028385212154557,0.08262869916334226,-48.23059357447059
-18.647368040531504,0.51737529654237,-42.78237620847859
-138.6337133852598,0.8609705352623331,-124.7835808037428
-7.047740872611557,0.5616687170092804,104.93732085064696
-67.54995224688784,0.30922424494741463,-9.833685266548581
-48.5997960504883,0.7571736786223567,-34.4590432037403
-55.340294682654715,0.6792781958469707,-164.6733717542155
-74.31422441217964,0.18004454075717036,4.20233002234916
95.26822039284811,0.5534734541217594,75.8516796210768
4.3970754603437445,0.2590225384419753,218.33035473364276
63.045158463519336,0.026314259359721204,20.86340518513678
168.967412949211,0.5144771122196029,84.07510419688104
-37.99922278382743,0.6895417550146032,-9.68574080281252
-131.80394773281952,0.5668719777839224,26.57694732876717
-8.828037429754836,0.919929530737155,152.26277822884825
-37.2604069166617,0.8297214713681985,-32.218059119982726
77.41224261207759,0.8734776386156369,-42.264544160644974
-124.92053414004987,0.05902810686537607,4.592571076657291
41.298176638133484,0.9236764590410074,44.2646635456145
-98.74694780928984,0.9887177092115375,132.20478542221977
14.175538883225933,0.836017635201085,9.714664826984688
24.786055567369083,0.3241634266385006,-5.163063255338349
184.37125449301567,0.43682748657503656,72.82241062487846
78.4891210492916,0.8245949327682788,225.92965080849802
-30.721268581648353,0.6415942069228063,-208.69342025064074
61.580504394130664,0.9152770748822124,-55.977141860487635
49.41194525149236,0.21257379340596239,-26.02362629520406
-139.63978551752706,0.4788284734105328,21.5919206777791
203.87220496534616,0.9235235024235202,10.22676502330935
-129.3647960466891,0.27481332607563214,-86.18359983696166
-105.27195790121982,0.74552664543552,10.741857290520567
-107.7259813962107,0.09204031159067938,48.107649402495355
-51.23020719986072,0.6533671271574516,-152.15320245250297
-77.58124546831976,0.30091758887692754,-75.41227099783947
-67.95407259395036,0.9587463780335987,-45.09214009411709
-111.90747177659802,0.8227685366189276,118.54253747493759
-21.181313567042878,0.8721044897581064,-104.73961936241088
43.36858114336022,0.932957678438191,13.716100161644132
-42.07694853465333,0.809366235242556,-22.59495637587908
-64.02971242404695,0.07921853864808182,79.35814458211402
39.620119957538094,0.41913233760999535,34.57029972621478
-63.64891361827617,0.23969861465242048,131.9184142071565
156.73248153873442,0.7517479391769128,96.70582082747899
-70.52480805974903,0.42143286467654184,107.13238944963221
132.9040137139157,0.0544936008664062,66.1674195533065
37.35135909857368,0.3619950439004068,-9.10811300678636
-86.60781898614822,0.4235240642296968,-25.452902613537777
-5.550949349064634,0.45112917752260384,117.26157736360277
-27.325573235329742,0.05098753267893652,249.24974916587507
-1.1051678326247596,0.7508119718182047,25.714977879488654
-118.27843031613352,0.7728539231172965,115.36467948170932
110.5160128739608,0.6867301051398902,-17.728828528519237
7.355133450709735,0.41999958274315097,-7.154084834569095
-149.66560667732773,0.030146885384911393,116.04146725445088
-136.8828172694443,0.40808044367763185,-88.65528510836117
-64.75146895712258,0.0782881513096475,-21.29350824752259
-46.692276377910765,0.12097737826600419,41.10675348291235
-3.0105161536147214,0.682630784670001,151.8501596241899
78.8669235089559,0.27997844377435166,140.22815252777372
83.1693107214529,0.6055004195526661,-151.67406410213843
82.23246830464231,0.4233040066479007,-100.30691433187755
28.518227578363575,0.6178168184653943,-30.696719329682274
25.7562886633638,0.36132896092945743,-15.50398510002041
-124.3637837429447,0.4883840380596899,-121.71351519373763
56.11396787705908,0.22344533738361405,-40.35199171027001
-78.92160126307766,0.4762483513866237,104.58264002699742
196.85188494818547,0.7483072350099507,28.495566694143804
31.940964526581755,0.4674312461347222,-9.442129428162538
35.29800336515487,0.7007110622012866,-69.7603511475701
-105.02264840156859,0.7876212719362832,-65.22905884034562
163.49480457205064,0.5914925086715339,106.10809916158996
29.11292151371197,0.24501523111610368,-180.24035771689557
-111.38224177409705,0.6930657274113566,-15.782004564026572
-28.164129059863786,0.5843777948191257,74.52491826201162
-123.34951144020285,0.24542015983670007,85.30022971431046
84.82744368612694,0.5710182474796827,-13.087705502603116
-182.15833869126496,0.05329180022561797,10.274841342050603
-24.764732786570978,0.5714438138661762,-50.66678345665328
139.0466466065096,0.5271054035822087,-23.98127415115413
-32.819491706945485,0.15458439401329616,7.112928734824687
62.92171296479035,0.3575266318425716,79.63519253322899
-58.17426822257183,0.008272613523420014,64.45187888643974
-135.94766250448865,0.19293200061699134,43.432016189469984
-183.34759220422583,0.34551411596564874,-65.91937833988989
40.42393627878761,0.6199402892637322,49.05234158919603
-199.20659182020867,0.963143668046967,-171.77582232725192
-26.21075715810028,0.13575866424195793,82.88800992986413
-52.37975582618355,0.16416873071320415,-45.330544943312596
-33.97376637951241,0.1960086367113384,13.685994358108983
-95.01380681425105,0.2847726316495752,84.9441838922663
49.98190225897317,0.03354553885443268,31.229935497306684
122.06504905684135,0.644906381374483,22.53613353401174
-127.44497179268357,0.3306500556483011,162.46671125471457
-237.98953424305856,0.7688811311350593,281.325663432053
-16.479075818649218,0.48623326695139146,17.206718054756646
-63.564803951378714,0.9320849204108949,-263.8590210873114
136.95879102004986,0.5306686207111593,-32.261839262130614
-29.38863916254827,0.631570561388478,-2.7284001222515313
57.8303237907957,0.5738607303045389,14.551704995643867
50.34684600830538,0.7958176558755191,101.97944218004287
87.83408728585704,0.46432949592037254,36.075659227648444
-40.19054196450452,0.7262637654321623,195.57368481214579
-4.942429945369964,0.6971666941033103,78.10134647125857
88.1481574422244,0.9047104245051472,-14.843084917014854
-72.66553880509957,0.12670103150889944,144.9304241449379
-132.27014020611094,0.13783487262195548,12.537007413252882
-12.026235745760138,0.6358604507319988,72.4814721146738
117.13639083719136,0.5274716400633533,-6.905138835106861
237.21078985623137,0.8748441974862166,87.97455239618425
176.88644815821894,0.47276115902603155,-130.87189090891377
-25.88430154716398,0.1078313187125376,62.408985678498475
16.96556490645805,0.9299476787057769,253.25343555593366
-99.52523567661582,0.31026279456173533,-82.16813894356362
22.03643284696686,0.053576039824703936,-34.70044575971757
-32.56205072239687,0.367726599842492,66.42065611791529
-33.38880751515778,0.6930409091805885,-72.70009190276447
-31.43762591956108,0.41234304187798265,64.47226177810221
38.19041289969997,0.04822756146380214,-100.79372094912064
-3.470238576302985,0.7463711031423272,-65.92411228733016
137.6661317269566,0.06468887899767661,-206.989432584901
-38.37645054861796,0.37587528071211784,-206.16980404618315
-75.5320859739974,0.0832343868328107,-137.93451699931742
67.95419403999986,0.2782160352773254,-111.62208880463862
6.434630304149748,0.3822941276146802,-33.38286851425109
35.391972955793186,0.9840285361694436,-113.70103758052367
65.65668855395388,0.7775595822031216,109.00244297184113
90.04474558043152,0.7430346995263992,-78.91956228125659
-127.48770540343092,0.2941133829053427,-53.94927514887422
141.1261826403234,0.8768897774667862,141.06385846554593
182.34336881945612,0.052619101581535155,-108.09009341118951
-90.0652382685358,0.2903423493822217,-27.431151625781514
97.74276280202307,0.684107447020939,-143.8949573043315
5.143696089859411,0.2750705930395936,-7.215032006729865
-51.899334608296655,0.4822813577367798,20.623521471462666
-122.12335491230893,0.3143259442540819,-60.29668508864733
-22.839821237823227,0.8509242483304044,-37.66315585626435
-40.175587167008544,0.18638862073325635,71.7003540813005
79.64696618629795,0.7251116821456076,-6.430964912038674
-87.964045594293,0.34419318755733186,-112.83912540169129
89.6599724990531,0.2670070178405236,-78.64470259450408
90.81236896484944,0.8721333637648905,-79.37864608548676
44.405446022063586,0.7995366499655033,-83.58722937249271
23.716567527871945,0.5825900659956104,-49.166452536645274
47.23610288872405,0.624690432635046,100.6627564186284
-204.1156806053719,0.26575260110914845,42.21094071866741
140.8886841840959,0.048427425559036674,143.48604477581347
42.96007219972691,0.7926581199799261,-198.388125776487
-204.57220472328507,0.7113193563079834,-14.120318544924027
-153.22648846186684,0.8046452658390673,28.962230827333247
57.103392431169574,0.9682252806560141,165.47680723316248
21.749451845682227,0.6521655408314447,1.601056822773162
36.245534171560784,0.38944990274770663,43.78237694834898
-1.0936421067020534,0.6648723483776638,88.45545411095605
80.85741404608052,0.1617776110022774,155.86419933380805
-288.8250777355889,0.19893000715122378,-41.62816807371818
-5.7700183148841955,0.9867149024478281,-45.127662996971914
207.0110162744566,0.7499251878237538,-49.613618358255415
22.691362996756403,0.6428178619321345,16.99365170191569
-185.8815109213721,0.47063826170905787,-21.279654862956896
3.24516736169335,0.12736267361502007,82.04338761224741
-58.79095914912574,0.29410632600472,-82.77433672787762
34.222698726084744,0.5686821512367374,154.18271640396443
86.28293458682795,0.9149630380219341,60.91636259511207
165.3523111847088,0.233736215319856,119.3327574050811
8.8961555481638,0.8815272841368584,-29.484751590236264
11.287591393249107,0.6503309293440236,-24.824878932398736
-126.38359872582487,0.2477408828004357,-19.340573774851475
47.639400604216405,0.5623486838322004,-78.33517465366515
-112.95701689840895,0.25184033703321884,193.5754976948556
3.2125399285176486,0.0564741502197027,-6.509590623654543
-95.4829643563212,0.5809240780090705,19.934749392828028
5.1693414992710744,0.055564480203525335,159.33850633521624
-84.31606129081672,0.8236196608143966,-195.41471581718153
15.751859742883534,0.36274804486811785,-242.90523892860466
-45.233349834401125,0.8329516533094358,-39.57426231935251
-17.802437548939253,0.7515788212214818,123.09179276041947
-3.0285792680152026,0.8562355405701506,-124.3579907553921
-55.020978851110144,0.3180221169525619,57.00888585908495
-141.2612895583907,0.2657412888869177,-3.399148964972791
-8.897900252279763,0.20678165387722036,-52.43427824679273
-142.49284146339352,0.5496878279949002,-86.86161414061965
29.466599430840045,0.31678882474520553,20.85124170034963
-87.55596048220058,0.6376885049587875,-11.067390010784404
90.39523150458328,0.9068584479878016,0.30407949298191267
21.545096517435848,0.49718222953744307,-2.3051222612342603
-126.16589726570737,0.5895729484835427,-67.05285429691308
-75.2290405566979,0.5733688035607859,-54.89952419452364
41.692209979105684,0.12243026685996217,-16.6383562131106
10.186334753692313,0.2538835471496408,-48.20980914695122
-191.042450997832,0.31042033957241677,157.78066444414375
37.26369178658293,0.576211717078573,-48.44790874467957
24.50195657703421,0.031351995081926876,-89.24584369939346
27.46198419434238,0.33457354031374564,-155.3831724725559
73.48064164156884,0.6330479236322198,139.06329164237192
-55.380485361367924,0.6642557932196242,114.84036586283909
110.3328348947542,0.36153935184229635,17.26839929659838
-43.880517642993595,0.0013991523932072036,-31.3193198582313
23.27929134263891,0.24625784117348226,-12.838937202668124
86.50152611618894,0.9300176308262653,-36.887710698252526
92.56989743281187,0.27574656732584746,23.511131162619996
125.78674867873956,0.3842514216040479,33.84808047732241
-110.53162487768704,0.244725073744108,196.66507276734237
-26.958332758524982,0.8190045871340973,-32.671969480958545
93.59487410601743,0.8165671559017916,51.2076488908501
-76.21710786566881,0.5802840868974177,37.28206600563355
-25.156058229840443,0.8159834481455737,130.87021564126556
83.51771881885627,0.6489615571111941,-46.35680331354231
231.5953917400256,0.22954788735717624,24.286762313827296
21.33700317003276,0.5465318447746229,101.21641144239561
72.63416889259861,0.2028728110484228,-157.6761945445027
-143.99931007227636,0.2545820983266107,66.58262475165807
30.1628127609051,0.9805275247563524,-117.67158093514693
-38.895478661949,0.034909670962973594,-113.72256112880552
179.23870295509005,0.5498527125100061,186.4084410804842
51.895515581106956,0.98401246040165,-11.081159269285308
17.171402127008474,0.5797531233718195,37.03864665047896
-65.65438677981075,0.3572567112207947,-65.99253096117573
-12.716725207027855,0.9195681973830886,28.872560498709543
40.28313432894643,0.06701403622452662,150.40282491177067
88.95192779674883,0.8924638305752023,-53.80220043991116
125.21437318458138,0.18995806276621752,-31.647820371862906
5.02411497974479,0.5695582397405891,9.919267094482292
-143.65784886705484,0.41949809469994837,41.97030461365972
158.06064577818262,0.8871083351510155,-118.21168689416169
269.1850547574764,0.18642710917986272,-113.64776682233264
-21.580137142889257,0.7883521333699987,93.85938894229774
-106.11066898757355,0.25979378832366173,-4.986648197838891
-183.72951695045253,0.7241219572791374,-43.54218187823109
86.4807645454139,0.013018056689643509,205.81580163820695
34.4866164877488,0.8517633794180274,122.83051806098635
-69.65632805431643,0.00856792058976974,-21.820105016203335
28.61748930943659,0.4647635494093104,-89.88559770961508
150.3611552432619,0.2081170251825638,-40.12058789703368
-177.37207609730802,0.23856975754702137,-20.118700609830075
14.289496495886816,0.41285966116231876,140.75217473229523
-173.98049015772636,0.00899789057678746,111.69129236337199
26.72593804346972,0.5265427691009036,106.75598291407964
23.53239082642998,0.4050945512494689,188.48525396355046
-3.5144233571996453,0.17931397828883622,27.403870982558885
69.49125234857351,0.5734123981593131,6.474171536771167
-72.46998041809863,0.44821629460507173,84.8676421579191
-117.72397011003046,0.4558135579666235,46.57011228602001
101.86685006116487,0.4046344780388431,55.18162541478656
-32.78132654754636,0.8475739629148795,-173.7221403899605
-51.89997128217851,0.521435835341165,128.9743714360847
-200.72983012891012,0.1081453705268216,-92.84219835401466
-142.3002488818495,0.4387173327356836,-4.571590396851464
-61.628091161330026,0.8607508679568868,135.79772049178558
-43.559512152418165,0.04673130303482176,148.547628381035
-46.095798070981914,0.6170428998793871,-87.52771397407496
39.64004295754211,0.32834532117212556,58.93527231087673
-12.023354940564984,0.860235413766946,74.56595300036517
-116.53215888421637,0.7651160268396235,68.51142409782028
-21.11877530782424,0.973689395066553,198.72357303403268
68.52130071001928,0.8338899620969281,-8.4531000797341
9.602145130985765,0.37801074526048284,-47.994975966254366
-162.29218618988318,0.8725980291056566,-65.76887255636596
91.24524491112857,0.03903939665007017,2.567653284529079
-79.27224495423661,0.3563736233721255,26.398664215007905
-143.3462760980996,0.19400885380576716,40.433692100700604
108.26408361509748,0.5996774374680933,0.054796911189184304
61.90550824595977,0.7259938215319546,95.19735792724504
-42.995758300819425,0.41384308572686324,-7.620479432128688
-88.35876475466061,0.14191246065073337,-292.86128261658337
-88.89009725378737,0.44509437604492297,70.99378501274292
40.23970757644923,0.14155921714672393,-88.07299497222925
-172.31558613460865,0.45713243959701266,-54.80936556971224
-64.30831779388745,0.28903700752566586,-89.51365839823981
109.95681415463716,0.5979952254769076,-45.987136900856434
-145.13429288511895,0.24310367561381419,-91.82143788414878
50.40595099527625,0.2965411083391982,11.43871793279381
-85.34123236841806,0.39738729463276745,47.240922418273286
-37.848991462986184,0.7588153930616311,42.547635396597904
-51.56426593487483,0.5423922863112135,-0.615351441756568
-30.808799312871184,0.21968915408644518,1.6067016319107812
-26.298866849016793,0.3270972960453957,-109.88473910787309
-66.03044371529128,0.9269490975469994,-55.852439933227394
-61.60892394205161,0.35078534231773095,278.10180649479855
-82.22430827880967,0.1976234900385554,-33.63869082016368
-108.32119512671832,0.05958035667147421,-133.21002481069354
36.41075763345716,0.9126859922934721,-37.50824442132263
-45.791072529840115,0.4172083958864492,130.79970112173748
-24.11150635560245,0.06330300769319719,-5.302798141419264
137.76776546800912,0.043528346048519184,-83.34258197187
-115.73943502147348,0.38517262197012747,50.186781452527626
-20.55358118041416,0.1710832478699107,-98.61033894400697
71.0647539258882,0.5967802098790799,-65.78686726324558
120.42208634821856,0.5886695846569046,95.48509765933663
-112.81046431545505,0.8659179333479939,128.91773037564676
145.40324820325696,0.6035204008814897,-144.74246668611215
-5.657209016601162,0.798585700032784,21.928199053031612
39.239273429731064,0.9098887842140462,49.7201886116315
38.57518984397368,0.14725704518279337,-297.81585234545133
-37.071428853057846,0.38567266388349997,-39.60158477010445
-171.33974405060792,0.6730702159245343,-24.452919867593163
-27.319648285215635,0.3958597492223559,182.87517401881715
-14.313980477207943,0.2571973720091696,66.17209874893463
112.6508610411851,0.08065255664493776,118.94251845874217
18.72340393859244,0.047998909921333266,118.61817243309804
-230.11125240638347,0.12459444708311751,-37.74108626359614
144.45891128856664,0.4535331595821517,106.2513658047643
-81.3733105589384,0.1097062564251502,117.08472818996059
82.36624482695673,0.02826816050529457,124.10702594346486
51.96613489026161,0.32009530453785073,44.06575353540743
13.37401690664789,0.5031148428457323,-171.5260290802085
-142.5859039617739,0.46730889347728155,-74.29001755663623
-203.8013869498569,0.2150519227644564,96.32214416225445
-116.88989976635366,0.5415255768938191,37.9935895431158
1.7316742788623556,0.540050999624998,123.04607514833414
-270.38576791546996,0.23755078866426216,-136.64232905036283
-27.567683882180194,0.40112302871846994,46.56623750374577
-21.02252348509642,0.994195232593597,-20.675915305385583
-223.88367989452408,0.2634967540759533,180.74593968354012
130.82001687085608,0.7794633368675236,21.670062659823714
-76.62752020446601,0.9971356936035064,-166.5534041164486
40.90402274324622,0.7417232531844418,-12.694834569400069
-235.11068796967587,0.8371959021379385,-77.43172678576207
-139.50635938227276,0.8543721448696839,97.3984907095815
-64.22633441578526,0.7567988815146404,-108.66253352140667
-41.88210165569303,0.879817984346273,-68.73839312449452
47.12873264645205,0.04042457725409865,-191.9920064345107
72.94846694724625,0.6376125755675178,1.3623576064309562
192.1424443315404,0.7319378668403786,55.469712298628195
171.34067187220703,0.3726202090687749,63.34281302544264
-6.02374679102936,0.930092191360681,-84.4331297263145
80.09171829111767,0.3955340804597559,66.06587639104859
-76.59944447989386,0.35180143542028974,-30.655173622233285
-95.54985891283796,0.7757240239099278,-55.34543104607961
123.1130768626842,0.648645748474161,96.82931920192578
-9.199973597563702,0.4175709766379737,-43.67362022043857
40.029881516283204,0.8505485460535681,165.57491890614574
45.25684122432127,0.6882166850937217,-152.56837737753457
45.76434502626761,0.29231140275420875,-24.964707580902
-149.13281283901645,0.5403400336306304,64.26617465224392
-46.774824112256184,0.5049881919998777,-26.99934243756852
116.6950771693777,0.3799444250584515,31.177900716453443
-66.78179039360886,0.7232649064070626,-30.688921203499653
87.3183856921305,0.6447703368020961,-21.86103797240357
93.518465508011,0.22375632219020058,42.772303133626835
-271.2562763254555,0.11193626820525115,-212.48686136643536
-80.05708404210947,0.1431202618192181,-59.49385780484481
16.57162699111532,0.12792122237617465,-63.749555586467125
24.098307548539925,0.8159221768383378,-123.70652390510797
82.61529229871286,0.38019818335965383,-28.111100716551967
-54.91255564383517,0.5756996718075967,95.69853793591257
82.85062887052497,0.8026938382285934,-151.67859771318555
46.1349891808925,0.058286065376844,112.4378138978579
28.84845843855662,0.902905495705997,183.27775055438235
-12.932346821588178,0.3408206587225939,50.75164189820697
-83.32471157011094,0.9506227494737883,92.72535957882286
179.99848239915198,0.19125213083670467,-76.20547739191925
86.30204669924521,0.47616066397574397,74.98479099279216
58.83510724780041,0.94938996421305,66.49513208503203
-77.32743892787451,0.17379332539845405,49.5937887763666
-34.96638147953591,0.43424790684825454,-4.3735344793856274
220.94992049767262,0.2829029311636776,138.64474213279382
32.064343263973036,0.8651281261337121,-30.033644289799433
145.70601976478346,0.95547213458141,-25.852636385725482
179.98879766221773,0.40083084379436407,-10.93175355765838
-21.62476348249976,0.39854620974954613,-55.55472721186794
105.46020471186286,0.8839295147673295,-95.18125810781173
25.215970056023572,0.3023476457656973,92.3054302039657
192.39637610357673,0.4346637148487733,-20.337769284446843
5.352486809685057,0.6753314581975879,213.13312292670935
-57.041244393030475,0.8683802444152041,-70.50808670737023
-44.212895308699366,0.872469601801862,103.9698832427055
138.71891915506643,0.7280153967781232,-79.31410118834037
56.205424726992405,0.05069479975270064,-138.028332496274
9.173286234419296,0.5468695218865662,72.6846008730524
52.93242742155678,0.5977929034791633,89.88040552354369
-13.250118006972489,0.6915741005243423,-30.52258359261164
-27.013002466875523,0.8746091167367885,-108.19591257046869
62.900015952406775,0.8168741554563346,103.08781851070854
-83.87536449589551,0.8479425111680866,-73.91749373243387
34.20043319438708,0.321806821330209,63.457306381117206
38.60044368740137,0.8342121847728762,156.4716437981345
-23.166817570448803,0.4648191093549987,-168.4262715129926
95.6196162735224,0.6407543878455838,-57.55597449454315
-129.2269805415555,0.7821996158187909,-66.60533359720871
6.2296737653370124,0.4076131162675616,-5.064579160208595
7.155180095859018,0.19198609079792017,-80.13230415985925
-116.58328564543811,0.9056138226698967,108.73416121188207
-154.65829968719706,0.9043061374484961,-2.331670361759052
128.6795092403618,0.9067086001352708,86.46354615431207
40.32104179623916,0.2438943410034763,-75.37519531129416
219.36352207248268,0.9864684990647659,64.09496210486328
15.627082820420673,0.9755639584679092,52.41493206052207
-40.17676408601346,0.6734925179576531,53.8843681014434
73.54380358479247,0.5068847066338974,33.41037335611874
-155.69194175097581,0.8759208602013419,-12.699625403242981
-24.740261947033208,0.1955116867145148,-104.37445912574172
-3.7752887252562255,0.6067883401104259,-38.412440531762755
-31.901215966164738,0.0037677565310093586,140.53664602780555
130.02964002085074,0.13687004493459898,-29.00883867422051
27.812542485231727,0.05823051708230231,64.2335889059345
-27.489446345026064,0.04206835834395284,-189.9173437162097
51.95998324258383,0.2467830154126791,-16.658282957198878
16.383893465580996,0.312209380575157,73.65725418796532
98.78333906850993,0.8047660345052309,1.006865462077076
-65.67008949605994,0.35418213306095836,-91.83794096482559
-107.06947490121709,0.22357085004696764,62.499940068458656
-86.10228370970971,0.15850539790303575,73.42958548202121
-50.10507894880115,0.7994870666841261,153.10937683284646
42.09974379266659,0.2573305221938391,101.19964863080646
-53.63059549332699,0.7958023774011053,146.0714457754446
0.932422063413269,0.8972253587720823,33.82159821200766
72.84656493818306,0.14785306282575916,88.07899219636418
149.1191547574675,0.234207832665688,-67.5377465123361
-93.43882272152892,0.617637680721598,123.60768111433053
54.96092145345439,0.17707114785090594,4.77201923570448
51.378632436750685,0.7868475746461417,37.17014794679105
100.69960269978586,0.9592912643944576,-1.8661704699612793
-66.34173056327816,0.09669936480662122,-48.832918853229344
-4.063140559553316,0.8624048409382787,-57.38072751790935
173.34324086514704,0.5313162590235332,-47.01746364974764
-83.6361536649468,0.31277093133931333,-57.43819620275181
102.63331064846616,0.3811320657039463,-141.34497441021895
84.29091085208807,0.6570288498758263,-21.413482111181008
-11.4670046664717,0.9734641885294765,108.1691996243421
206.06104793442208,0.32617724630611156,10.220037214395884
-148.34881042525353,0.6540259878830801,-96.77593000551383
-85.77386859426339,0.6586432392751673,-99.42683908532776
7.117177007351643,0.1445105348315604,43.97309619507691
23.376294599826313,0.7739864955828747,18.345813555463796
-21.493187233749058,0.3426149152996306,-113.22417152717838
-103.50299544107583,0.888888456712432,-85.92188939016478
122.50907693304269,0.4682767495392103,42.33496434540767
176.6248902077658,0.2806113073755824,-113.88287983412484
83.46310729342898,0.9958024323270267,-37.98691431884607
36.07531532002135,0.5277905432580425,-20.778001715393174
38.44132981621169,0.12503507268217295,-113.4476806700729
158.69909835496895,0.7449815756282371,55.35838378704929
-1.5864306480852193,0.40129434555654686,-220.1385207250381
80.45925302846108,0.7721563705446738,-84.46842852490742
7.365647857169922,0.8363978781880939,-46.699146976550146
27.382700723635256,0.010545994904264666,-68.6614882457566
1.14216647193175,0.009480702538542718,-123.1259116462549
35.938720371878496,0.7230939994914716,-157.48674078422627
19.2704222822891,0.20442948902832636,-89.68391774511932
165.41323040870046,0.04419093769947735,-68.82275873992894
83.51834146606218,0.688429487029401,197.3759418043362
-20.75153982655544,0.47162071188900956,90.10863944353703
-72.95542872122746,0.1258623175813719,41.32126069395162
233.12918215051485,0.892540845921606,-148.92332981950875
-288.1590312934068,0.161429526349544,-52.430673838253526
65.39923298928109,0.9041349641124845,-13.94660764592448
-48.274189426871004,0.787385247468604,121.8146127886796
-25.255312101482964,0.1927807434822293,-72.25377564952812
96.31102102772974,0.018055984405209835,110.36313104309588
104.73346506231968,0.8546766229179559,-7.548554172510212
86.86455799358497,0.5848711169272323,-25.968785002799223
-11.471805600675406,0.6490879898695056,-40.25346208355731
294.16037517957966,0.5391224609908366,-116.0473393699132
63.643676162531214,0.6756024257206449,87.57370704777479
-73.79007690561401,0.395874466436931,25.84261136842801
-0.6024090055657051,0.9284617628661859,-48.01224796989009
-156.0653247954679,0.5070629806438625,-195.8144880524365
-89.53090499723282,0.5786156578267228,-103.64183041896248
71.42951191918759,0.3395828948860494,3.8572680549553167
8.732663959577371,0.47965571835385057,114.75528323514426
-111.1720677356676,0.5933636849721782,-174.71875742283137
-128.79900818552332,0.21165160087552104,53.21007142839992
-169.8224917170103,0.8467720512588647,-48.7785070421012
38.17980193856496,0.6171380997071978,127.9354685521936
-108.32153418372954,0.7123685360244517,-33.99957970658922
-71.693232844215,0.9045303473740448,17.485065417499364
0.4034521069178264,0.7316947184135433,-53.0308996638795
12.285696389752092,0.4725625156580474,52.28465754984991
-65.29716358046187,0.215702857605944,119.57996136614322
-181.22650570545588,0.25663678706296644,21.1604113693123
-62.06912873124835,0.3667101399099515,109.72617170762864
-111.6848265074344,0.8860477719700881,-2.347304128877601
-33.72621526683325,0.19119413609643376,205.305564667339
156.03370792941146,0.6261303657246009,176.1732380477003
-236.1467024428764,0.37573722719451286,3.5375497155722786
34.02910450000523,0.35194280735921557,36.49538722314568
-116.38562199842181,0.7344835896274394,-4.6077782531666145
-85.30115774379905,0.14792121747138154,-42.74509909133837
-23.976040639908465,0.39935219335361205,-43.03678763112314
31.2388431933829,0.3963696399204939,75.80554086361566
180.67628226911182,0.795545388442162,-177.56767696310973
27.464143920824895,0.5129124493563206,57.13074724612276
177.67926237833655,0.4044385540823241,59.67981835380783
7.970732486502635,0.656080240261818,165.0565782936436
-32.354682846691425,0.9080087407798452,178.10750400534747
89.97955408022642,0.14470511642702666,139.75591127700898
93.35867448904564,0.5464517063509519,131.2932636697422
27.89651659717414,0.472457134613009,-43.17485848478088
-99.64862117774811,0.7652481474997925,113.97791872700445
-257.72549025484545,0.4156123951994968,-94.60239849724104
-12.778572890692427,0.22329343336125107,104.25985092442858
-12.24343084187949,0.28905048871764416,40.81951961054034
101.99144843204695,0.28265852764823096,102.80851746454552
-6.273576213300854,0.20147641334534283,15.5242167385077
17.41720279297946,0.45599044651821674,152.80273382702788
79.30546143327636,0.02995258816964208,-13.418700522453065
-3.4642390655419026,0.13548662914039022,215.7199726854528
-39.618870890813106,0.7758191441738767,52.94732743354557
14.302174193562243,0.32943406319053736,-125.458799875024
-144.02471583373267,0.720209922159659,141.51099958512486
-32.53504766944905,0.04352192980296998,-46.389205014184874
55.90873173686881,0.07803434439387102,45.0980018868264
171.48482699624083,0.03657146015078716,170.2071793349451
-100.73112465966973,0.8692974885860824,102.81535077007842
-7.041769870375653,0.8956489652488986,89.72898857753415
118.9490167144414,0.6902791552227513,-118.44386571255102
39.35093169247097,0.5767209881911152,66.03693213990772
106.183587608248,0.13793288105417323,34.78033553504583
-88.33470344970661,0.8113053748860436,-206.24695964777197
-0.4354034564432444,0.7900819728563867,23.239443897535104
122.73896804440845,0.6826736907667517,26.116027724844354
33.4258858064145,0.30436421142230574,-64.26642126451438
-106.38592925213408,0.23916395425631942,-68.8580368316102
-28.432378110508438,0.3685678512849553,-9.897773068575036
-236.01455586638585,0.5538801144288344,148.611961464487
44.91546464987819,0.008786189155509105,149.11910246039554
-163.0206922100416,0.2671548069021421,-83.31399096811997
-141.2925259028349,0.04914671601342546,-56.862261200146826
73.61893500336333,0.991111667712458,158.8426892312155
-99.31899262460738,0.6675536613135389,49.937789198536116
235.8907129830575,0.4359984541304841,-90.80388114416384
37.9455839301602,0.6469519304774446,132.35173977554078
57.691068091941176,0.36289595862176516,-226.01620643645072
-89.09430393346778,0.616842801966012,-25.710453966423792
-101.94676251386493,0.19172858858693564,39.24652342015521
-212.5859045922159,0.9319575085513458,-90.70375748802154
13.0040719482825,0.40803795449848623,-28.391882555851915
-18.065415159959723,0.014779131884280927,-66.87952034241258
129.94176724215194,0.046445889404980734,-238.16445954754698
-23.081115830572802,0.27073434486670145,-22.727363290376275
-235.04813678528498,0.7217160729892336,-102.9389932642622
-112.69270382414969,0.12578210447681504,156.44697300074066
-20.49115334997917,0.2821950316131663,106.91029531491836
106.38161293153252,0.8161646103003342,-6.920364939987649
